-89.2638346618182,-86.4901787076193,-83.8010284011912,-81.190945656283,-78.6548625217391,-76.1880539776244,-73.7861129139121,-71.444927097537,-69.1606579580107,-66.9297210342655,-64.7487679401182,-62.6146697205849,-60.5245014832311,-58.4755281961948,-56.4651915578709,-54.4910978504175,-52.551006696204,-50.6428206446148,-48.764575523375,-46.9144314914382,-45.0906647405658,-43.2916597932527,-41.5159023500851,-39.7619726453075,-38.0285392711734,-36.3143534343263,-34.6182436123095,-32.9391105809455,-31.2759227825329,-29.6277120121695,-27.9935693955962,-26.3726416418607,-24.7641275460365,-23.1672747239844,-21.5813765691495,-20.0057694062743,-18.4398298338469,-16.8829722415032,-15.3346464865089,-13.7943357241762,-12.261554374578,-10.7358462224462,-9.2167826364809,-7.70396090339273,-6.19700266522898,-4.69555245740605,-3.19927633626355,-1.70786059368152,-0.221010550261042,1.26155057493969,2.74008272792116,4.21483001559056,5.68602164132295,7.15387278479869,8.61858542707222,10.0803491267362,11.5393417489349,12.9957301511329,14.4496708270052,15.9013105137327,17.3507867614653,18.7982284700716,20.2437563939415,21.6874836182638,23.1295160046721,24.5699526146672,26.0088861049215,27.4464031013075,28.8825845521831,30.3175060588683,31.7512381885593,33.1838467704808,34.6153931713061,36.045934559648,37.4755241511053,38.9042114428021,40.3320424315161,41.7590598222428,43.1853032229017,44.6108093299707,46.0356121000939,47.4597429175485,48.8832307461366,50.306102277857,51.7283820696911,53.1500926744768,54.5712547628235,55.9918872410566,57.4120073594831,58.8316308162078,60.2507718549074,61.6694433567733,63.0876569285486,64.5054229830057,65.9227508183955,67.3396486905659,68.7561238826109,70.1721827696553,71.5878308811042,73.0030729586121,74.41791301071,75.8323543647013,77.2463997164961,78.6600511749516,80.073310306881,81.486178177575,82.8986553897402,84.310742119824,85.7224381522487,87.1337429129156,88.5446554976705,89.9551747040309,91.3652990556086,92.7750268305052,94.1843560822003,95.5932846646273,97.0018102529674,98.4099303638159,99.8176423729379,101.224943534614,102.631830997614,104.038301820541,105.444352987363,106.849981420595,108.255183994517,109.659957547201,111.06429889156,112.468204826838,113.871672148379,115.27469765578,116.677278163261,118.079410506473,119.481091551082,120.882318198611,122.283087394468,123.683396132841,125.083241462542,126.482620493069,127.881530398529,129.279968422459,130.677931881816,132.075418171039,133.472424765472,134.868949223697,136.264989192619,137.660542407087,139.055606695038,140.450179977777,141.844260272838,143.237845695397,144.630934460678,146.023524883426,147.415615380908,148.807204472795,150.198290783051,151.588873039287,152.978950074854,154.368520827253,155.757584341821,157.146139767684,158.534186361674,159.921723485698,161.308750608491,162.695267303511,164.081273251394,165.466768236719,166.851752149445,168.236224984208,169.620186839366,171.003637915722,172.386578518523,173.769009053444,175.150930028894,176.532342052314,177.91324583108
-89.1664494184596,-86.3984373641945,-83.7145809179599,-81.1094651199853,-78.5780434768939,-76.1156108905269,-73.7177787572437,-71.3804520454668,-69.0998081824024,-66.8722775926755,-64.6945257488978,-62.5634366057201,-60.4760973019301,-58.4297840237196,-56.4219489349441,-54.4502080855191,-52.5123302184832,-50.6062264040129,-48.7299404327422,-46.881639909735,-45.0596079915159,-43.2622357187086,-41.488014893397,-39.7355314648425,-38.003459379231,-36.2905548618456,-34.5956510953912,-32.9176532690581,-31.2555339666987,-29.6083288694439,-27.975132753891,-26.3550957564123,-24.747419892108,-23.1513558045244,-21.566199732823,-19.9912906777382,-18.4260077553078,-16.8697677235238,-15.322022670186,-13.7822578489713,-12.2499896570338,-10.7247637410869,-9.20615322456433,-7.69375704700906,-6.18719840983033,-4.68612331765451,-3.19019921284286,-1.69911369450216,-0.212573317317606,1.26969753660848,2.74795771400971,4.2224502847298,5.6934034731791,7.16103153376832,8.62553557432159,10.0871043281076,11.5459148805202,13.0021333520227,14.4559155403559,15.9074075240796,17.3567462314483,18.8040599736751,20.2494689489127,21.6930857159124,23.1350156391979,24.5753573089833,26.014202936726,27.4516387276542,28.887745230937,30.3225976707967,31.7562662581156,33.1888164837102,34.6203093952206,36.0508018587266,37.4803468034067,38.9089934553545,40.3367875554823,41.7637715656306,43.1899848648767,44.6154639310466,46.0402425160214,47.4643518089884,48.8878205901744,50.3106753765931,51.732940560666,53.15463853836,54.5757898336108,55.9964132131437,57.4165257943104,58.836143150717,60.2552794077842,61.6739473352716,63.092158433742,64.5099230166448,65.9272502878272,67.3441484139613,68.7606245936835,70.176685122988,71.5923354560668,73.0075802638272,74.4224234876514,75.8368683927656,77.2509176145128,78.664573206349,80.0778366817715,81.4907090569326,82.9031908875787,84.3152823058345,85.7269830555407,87.138292522389,88.5492097673278,89.9597335520032,91.3698623695091,92.779594466429,94.1889278682039,95.597860403241,97.0063897216433,98.4145133165458,99.8222285424843,101.229532634262,102.636422721236,104.04289584512,105.448948973896,106.854579015474,108.259782829808,109.664557242829,111.068899055845,112.472805057674,113.876272033017,115.279296773206,116.681876084593,118.084006795347,119.485685764626,120.886909887998,122.287676105569,123.687981407153,125.087822837765,126.487197503006,127.886102574317,129.284535292597,130.682492973424,132.079973009124,133.476972874202,134.873490126979,136.269522412906,137.665067468077,139.060123119848,140.454687290623,141.848757999122,143.242333361834,144.635411594588,146.027991014488,147.420070040683,148.811647195366,150.202721104011,151.593290497469,152.983354210956,154.372911186624,155.761960470646,157.150501217312,158.538532685155,159.926054240695,161.313065355118,162.699565606722,164.085554679096,165.471032360643,166.855998545354,168.24045323189,169.62439652256,171.007828622759,172.390749841204,173.773160588502,175.155061375971,176.536452816558,177.917335621994
-89.0740648825621,-86.3114063914357,-83.6325715156978,-81.0321672230602,-78.5051673662034,-76.0468857378191,-73.6529512827344,-71.3192852812165,-69.0420803310787,-66.8177809735011,-64.6430658240145,-62.5148310804481,-60.4301752918329,-58.3863852837218,-56.3809231464082,-54.4114141933977,-52.4756358190144,-50.571507174707,-48.6970796048802,-46.8505277769328,-45.0301414542541,-43.2343178596054,-41.4615545837162,-39.7104429965395,-37.9796621234065,-36.2679729501895,-34.5742131234165,-32.897292019369,-31.2361861499969,-29.589934884082,-27.957636460609,-26.3384442684711,-24.7315633774977,-23.1362473039213,-21.5517949860146,-19.9775479637997,-18.4128877419262,-16.8572333259349,-15.3100389189033,-13.7707917661627,-12.2390101405093,-10.7142414553791,-9.19606049881673,-7.68406777961036,-6.17788797759147,-4.67716849185717,-3.18157808012086,-1.69080558185919,-0.204558721916385,1.2774370127832,2.75543942702677,4.22969060605357,5.70041784498335,7.16783452115345,8.63214091322556,10.093524971379,11.552163041227,13.0082205443347,14.4618526173248,15.913204714465,17.3624131728135,18.8096057460681,20.2549021042446,21.6984143067406,23.1402472458379,24.5804990654245,26.0192615542985,27.456620517669,28.8926561267348,30.3274432481776,31.7610517536173,33.1935468140155,34.6249891736633,36.05543541143,37.4849381851421,38.9135464639571,40.3413057450853,41.7682582609564,43.1944431717614,44.6198967500607,46.0446525519974,47.4687415822924,48.8921924459423,50.315031495174,51.7372829655263,53.158969105315,54.5801102980951,56.0007251779148,57.4208307373678,58.8404424309639,60.259574272337,61.6782389251791,63.0964477899606,64.5142110854522,65.931537925796,67.3484363935033,68.7649136072954,70.180975787474,71.596628317228,73.0118758004741,74.426722115241,75.8411704663677,77.2552234332874,78.6688830162176,80.0821506794041,81.4950273910213,82.9075136623684,84.3196095844864,85.7313148613867,87.1426288421926,88.5535505528863,89.9640787235542,91.3742118155038,92.783948047506,94.1932854189392,95.6022217320313,97.0107546141382,98.4188815362947,99.8265998330691,101.233906719953,102.6407993088,104.047274625444,105.453329622198,106.858961193013,108.264166184698,109.66894141145,111.073283664151,112.477189720451,113.88065635707,115.283680356181,116.686258516421,118.088387659423,119.490064637599,120.89128634209,122.292049707775,123.692351719469,125.092189418846,126.491559908376,127.890460356917,129.288888002863,130.686840159809,132.084314218981,133.481307654035,134.877818021939,136.273842968782,137.669380230009,139.064427633889,140.458983103402,141.853044657575,143.246610414651,144.639678591996,146.032247508334,147.424315584297,148.815881344361,150.206943416507,151.597500533524,152.98755153407,154.377095362298,155.766131068075,157.154657807169,158.542674843359,159.930181544632,161.317177386935,162.703661951075,164.089634924603,165.475096099492,166.860045373946,168.244482749872,169.628408333152,171.011822333624,172.394725064293,173.777116938724,175.158998473306,176.540370284235,177.921233088261
-88.9866260271342,-86.229034032584,-83.5549514981379,-80.959006135557,-78.4361910458479,-75.9818378931975,-73.5915922251147,-71.2613907549085,-68.9874404333822,-66.7661991584082,-64.5943579815942,-62.468824684863,-60.3867086136968,-58.3453066621666,-56.3420903119426,-54.3746936440864,-52.4409022386217,-50.5386428950779,-48.6659741057716,-46.8210772221798,-45.0022482599749,-43.2078902927083,-41.4365063893159,-39.6866930502295,-37.9571341080365,-36.2465950539256,-34.5539177595265,-32.8780155633784,-31.217868695992,-29.5725200174214,-27.9410710424364,-26.3226782385236,-24.7165495681738,-23.121941265215,-21.5381548240039,-19.9645341877166,-18.4004631220225,-16.8453627599586,-15.2986893070934,-13.7599318938055,-12.2286105687586,-10.7042744174554,-9.18649980404496,-7.67488872210845,-6.16906725182696,-4.66868411226392,-3.17340930584339,-1.68293284645523,-0.196963566921738,1.28477200030659,2.76253067294948,4.23655360500186,5.70706721153823,7.17428403929847,8.63840358213696,10.0996130492792,11.5580880855495,13.0139934506868,14.4674836560197,15.9187035641975,17.3677889536647,18.8148670492956,20.2600570213343,21.703470456726,23.1452118005283,24.5853787738122,26.0240627656103,27.4613492025765,28.8973178979624,30.3320433794515,31.7655951984192,33.1980382222986,34.6294329084363,36.0598355640475,37.4892985901795,38.9178707121377,40.3455971972999,41.7725200598883,43.1986782538099,44.6241078564798,46.0488422397652,47.472912232801,48.8963462756259,50.3191705640964,51.7414091853078,53.163084247453,54.5842160015098,56.0048229562614,57.4249219853688,58.8445284316678,60.2636562024076,61.6823178609722,63.1005247129878,64.5182868879106,65.9356134150466,67.3525122968064,68.7689905764108,70.185054403049,71.6007090927866,73.0159591847993,74.4308084985717,75.8452601818253,77.259316760273,78.6729801844573,80.0862518708358,81.4991327436725,82.9116232716526,84.3237235068194,85.7354331157398,87.1467514126512,88.5576773912312,89.968209750344,91.3783469232335,92.7880871009011,94.1974282578633,95.6063681726503,97.0149044501632,98.4230345413756,99.8307557615111,101.23806530812,102.644960276629,104.051437677033,105.457494447275,106.863127468444,108.26833357529,109.673109570214,111.07745223403,112.481358334608,113.884824640194,115.287847925489,116.690424981164,118.092552623116,119.494227697862,120.895447090421,122.296207731929,123.696506603059,125.096340742026,126.495707248331,127.894603287576,129.293026096735,130.690972987776,132.088441350418,133.485428656929,134.881932464857,136.27795041901,137.673480255407,139.068519802593,140.463066984123,141.857119820094,143.250676429771,144.643735032315,146.036293947354,147.428351597825,148.819906509904,150.21095731411,151.601502745578,152.991541645223,154.381072959374,155.770095741485,157.15860915024,158.546612451688,159.934105017682,161.321086326923,162.70755596377,164.093513619428,165.478959088841,166.863892273798,168.248313179795,169.632221916997,171.01561869854,172.398503840358,173.780877762075,175.162740981879,176.544094120803,177.92493789894
-88.9040809070798,-86.1512714289266,-83.4816748959396,-80.8899385937251,-78.3710737870329,-75.920429004225,-73.5336654607189,-71.2067344335173,-68.9358564193333,-66.7175019210518,-64.5483737266811,-62.4253905512184,-60.3456719304849,-58.3065242602924,-56.3054278876641,-54.340025167651,-52.4081094076354,-50.5076146259503,-48.636606061855,-46.7932713755948,-44.9759124850719,-43.1829379871236,-41.4128561215879,-39.6642682319026,-37.9358626887797,-36.2264092369241,-34.5347537359729,-32.8598132659718,-31.2005715675476,-29.5560747950626,-27.9254275581595,-26.3077892304034,-24.7023705043425,-23.1084301803743,-21.525272165636,-19.9522426725587,-18.3887276012708,-16.8341500934033,-15.2879682449871,-13.749672966939,-12.2187859838489,-10.6948579606674,-9.17746674917828,-7.66621574536595,-6.16073235102959,-4.66066653175608,-3.16568946561438,-1.67549227504509,-0.189784839006506,1.29170532283007,2.76923409603785,4.24304175527635,5.71335388475717,7.18038224701996,8.6443255948239,10.1053704372123,11.5636917582657,13.019453692339,14.4728101601287,15.9239054659324,17.3728748605445,18.8198450693701,20.2649347913807,21.7082551666311,23.1499102186219,24.5899972687192,26.0286073285579,27.4658254673234,28.9017311602961,30.3363986153095,31.7698970811485,33.2022911387686,34.6336409744306,36.0640026389981,37.4934282905991,38.921966425125,40.3496620922896,41.7765571005552,43.2026902094665,44.6280973112763,46.0528116045034,47.4768637523534,48.9002820394718,50.3230925132589,51.7453191211951,53.1669838393252,54.5881067935287,56.0087063738085,57.4287993421866,58.8484009354812,60.267524960936,61.6861838870392,63.1043889302468,64.5221501351232,65.939476451131,67.3563758054582,68.7728551696188,70.1889206257717,71.6045774262477,73.0198300507075,74.4346822610245,75.8491371525334,77.2631972008622,78.6768643082387,80.090139847024,81.5030246986848,82.9155192931487,84.3276236450166,85.7393373855294,87.1506597969477,88.5615898411563,89.9721261885694,91.3822672446588,92.792011175681,94.2013559315528,95.610299269339,97.0188387730575,98.4269718736109,99.8346958688843,101.242007938664,102.648905163534,104.05538453837,105.46144298852,106.867077381218,108.272284540875,109.677061259377,111.081404306372,112.485310442233,113.8887764265,115.291799026197,116.694375025863,118.096501234778,119.498174493825,120.899391684659,122.300149732261,123.700445614371,125.100276365692,126.499639083162,127.898530929917,129.296949140948,130.694891026455,132.092353974936,133.489335458429,134.885833033107,136.281844344468,137.677367128153,139.072399212825,140.466938523363,141.86098308059,143.254531004222,144.647580515274,146.040129935085,147.432177688023,148.823722302633,150.21476241089,151.60529675028,152.995324164528,154.384843602255,155.773854119451,157.162354877578,158.550345145378,159.937824298418,161.324791817511,162.711247290965,164.097190412263,165.482620980926,166.867538901271,168.251944182602,169.635836938003,171.019217384655,172.402085842669,173.784442732936,175.166288580248,176.547624008026,177.928449739906
-88.8263806077512,-86.0780725711415,-83.4126984194674,-80.8249238555505,-78.3097772344673,-75.8626229535253,-73.4791369706341,-71.1552842676338,-68.88729808763,-66.6716607958542,-64.5050862244398,-62.3845033777275,-60.3070413809945,-58.270015572767,-56.2709146431035,-54.3073887346394,-52.3772384268061,-50.4784045323535,-48.6089586408167,-46.7670943508471,-44.9511191348083,-43.1594467886484,-41.3905904192563,-39.6431559292472,-37.9158359598846,-36.2074042605332,-34.5167104445078,-32.8426751133582,-31.1842853124585,-29.5405902975425,-27.9106975914367,-26.2937693023006,-24.6890186938863,-23.0957069822658,-21.513140346053,-19.9406671336751,-18.3776752549318,-16.8235897425803,-15.2778704723524,-13.7400100309439,-12.2095317211011,-10.6859876944551,-9.16895720357672,-7.65804496469025,-6.15287962401379,-4.65311232059764,-3.15841533902147,-1.66848084572933,-0.183019704506194,1.29823963513854,2.77555218195471,4.24915738176543,5.71928003765419,7.1861311726035,8.64990884256866,10.1107988973539,11.5689756980187,13.0246027910082,14.4778335406747,15.9288117256833,17.3776720997951,18.8245409188039,20.2695364369338,21.7127693746061,23.1543433573345,24.5943553311972,26.032895951718,27.4700499520396,28.9058964890327,30.3405094695873,31.7739578571576,33.2063059634406,34.6376137193185,36.0679369344239,37.4973275379812,38.925833809965,40.3535005950312,41.7803695082979,43.2064791257639,44.6318651668236,46.0565606647426,47.4805961282217,48.9039996944681,50.3267972714902,51.7490126760253,53.1706677585957,54.5917825280088,56.0123752622433,57.4324626184509,58.8520597333825,60.2711803202278,61.6898367585931,63.1080401802826,64.5258005504916,65.9431267435698,67.3600266150211,68.7765070703855,70.1925741276074,71.6082329792644,73.0234880490075,74.4383430454381,75.8528010128497,77.2668643801145,78.6805350051775,80.0938142181323,81.5067028607672,82.9192013264337,84.3313095933543,85.7430272610453,87.1543535801781,88.5652874838831,89.9758276152796,91.3859723547238,92.795719843773,94.2050680103454,95.614014590833,97.0225571488613,98.430693098206,99.8384197186037,101.245734175085,102.652633532534,104.059114772809,105.465174808151,106.870810494856,108.276018645386,109.680796042364,111.085139446157,112.489045609088,113.892511282307,115.295533226685,116.698108220511,118.10023306605,119.501904600667,120.903119700314,122.303875286374,123.704168333347,125.103995872328,126.503354997709,127.90224287081,129.300656724499,130.698593867325,132.096051687406,133.493027655386,134.889519327198,136.285524348149,137.68104045387,139.076065473843,140.470597332998,141.864634053448,143.258173756071,144.651214662526,146.043755096268,147.43579348313,148.827328353249,150.218358341004,151.608882185642,152.998898733294,154.388406935207,155.777405848895,157.165894640194,158.553872579383,159.941339044323,161.328293519995,162.714735596898,164.100664972059,165.48608144768,166.870984931682,168.255375436074,169.639253077968,171.022618077389,172.40547075774,173.787811544239,175.169640963838,176.550959644114,177.931768312641
-88.753479193667,-86.0093942521598,-83.3479814156183,-80.7639236596821,-78.2522653682762,-75.8083858220863,-73.4279748067494,-71.1070101580461,-68.8417370751602,-66.6286490495565,-64.4644702733925,-62.3461394018702,-60.2707945562082,-58.2357594634718,-56.2385306401841,-54.2767655341268,-52.3482715471263,-50.45099586554,-48.5830160364378,-46.7425312294334,-44.9278541283099,-43.1374034062902,-41.3696967365179,-39.6233442988253,-37.8970427424522,-36.1895695720122,-34.4997779239229,-32.8265917039328,-31.1690010576893,-29.526058151251,-27.8968732393814,-26.2806109983704,-24.6764871029644,-23.0837650363946,-21.5017531086255,-19.9298016721799,-18.3673005229981,-16.8136764675685,-15.2683910522748,-13.7309384361359,-12.2008434028656,-10.6776594991875,-9.16096729176797,-7.65037273594646,-6.1455056457151,-4.64601826123453,-3.15158390558986,-1.66189572469852,-0.176665506872666,1.30437742649315,2.78148726044355,4.25490266406763,5.72484770615125,7.19153271696553,8.65515509754619,10.1159000794941,11.5739414395125,13.0294421716952,14.4825551185763,15.9334235656671,17.3821818004224,18.8289556374154,20.2738629141317,21.7170139566356,23.1585120175491,24.5984536903132,26.0369292963241,27.4740232537507,28.9098144202891,30.3443764202329,31.7777779499365,33.2100830677938,34.6413514656617,36.0716387259123,37.5009965641747,38.9294730568209,40.3571128567891,41.7839573972774,43.2100450821541,44.635411468244,46.0600894345334,47.4841093443526,48.9074991964758,50.3302847688297,51.7524897538597,53.174135886232,54.5952430635999,56.0158294596548,57.4359116326021,58.8555046256497,60.2746220632356,61.6932762419333,63.1114782142468,64.529237870737,65.9465640153502,67.3634644370546,68.7799459776998,70.1960145965838,71.6116754298071,73.0269328483975,74.4417905104936,75.8562514140644,77.2703179429297,78.6839919134813,80.0972746156407,81.510166855586,82.9226689908491,84.3347809666643,85.7465023525769,87.1578323688772,88.5687699228172,89.9793136312408,91.3894618503126,92.7992127003049,94.2085640872998,95.6175137277322,97.0260591678252,98.4341978034602,99.8419268991799,101.24924360418,102.656144970523,104.062627966981,105.468689493491,106.874326395808,108.279535476315,109.684313507836,111.088657243074,112.492563425579,113.896028800104,115.299050120268,116.70162415848,118.103747713034,119.505417614791,120.906630736511,122.307383995297,123.707674362661,125.107498866668,126.506854599313,127.905738719926,129.304148459464,130.702081125698,132.099534105195,133.496504867588,134.892990969482,136.288990055022,137.684499860829,139.079518216307,140.474043046793,141.868072375604,143.261604324545,144.654637116516,146.047169076285,147.439198631508,148.830724313477,150.221744759091,151.612258709562,153.002265012769,154.391762622135,155.780750598392,157.169228108583,158.557194426499,159.944648932925,161.331591114699,162.718020565547,164.103936985277,165.489340179015,166.874230058129,168.258606637412,169.642470036714,171.025820479985,172.408658293313,173.790983904915,175.172797845671,176.554100745677,177.934893336774
-88.6853336630118,-85.9451960236104,-83.2874858264163,-80.706902187111,-78.1985044675129,-75.7576858557676,-73.3801490593361,-71.0618839263478,-68.7991468283895,-66.5884416547581,-64.4265022795812,-62.3102763777988,-60.2369104773613,-58.2037361455485,-56.20825721317,-54.2481379562633,-52.3211921525177,-50.4253729458243,-48.5587634513187,-46.719568045533,-44.9061042836568,-43.1167953975331,-41.3501633287566,-39.6048222547651,-37.8794725708796,-36.1728952932601,-34.4839468508127,-32.811554237789,-31.1547104976981,-29.5124705177797,-27.8839471069587,-26.2683073407767,-24.6647691492007,-23.0725981344113,-21.4911045984218,-19.9196407683083,-18.3575982021119,-16.8044053654571,-15.259525365918,-13.7224538328157,-12.1927169341237,-10.6698695208418,-9.15349338865434,-7.64319565077648,-6.13860721303769,-4.63938134528058,-3.14519234109326,-1.65573426266803,-0.170719762215242,1.31012102318806,2.78704150948568,4.26027963850339,5.73005879305731,7.1965886556892,8.66006601502789,10.1206755248998,11.5785904153307,13.0339731644683,14.4869761268374,15.9377421264903,17.3864050151777,18.8330901951206,20.2779151142356,21.7209897294127,23.1624169450849,24.6022930245828,26.0407079778986,27.4777459272453,28.9134854517604,30.3479999110907,31.7813577521828,33.2136227961951,34.6448545114252,36.0751082686575,37.5044355826824,38.9328843401966,40.3604990151131,41.7873208697489,43.213388147949,44.6387362540107,46.0633979231313,47.4874033820479,48.91078050075,50.3335549349811,51.7557502621554,53.1773881074232,54.5984882648766,56.0190688109822,57.4391462108791,58.8587354210101,60.2778499830873,61.6965021148912,63.1147027958455,64.5324618464647,65.9497880044467,67.3666889968744,68.7831716066957,70.1992417376597,71.6149044734709,73.0301641354986,74.4450243353712,75.859488027004,77.2735575528661,78.6872346896897,80.1005206917564,81.5134163294102,82.9259219279946,84.338037402153,85.7497622922068,87.1610957928542,88.5720367837127,89.9825838592564,91.3927353529961,92.8024893637383,94.2118437786205,95.6207962952578,97.0293444432386,98.4374856021433,99.8452170213242,101.25253583743,102.659439088106,104.065923731022,105.471986654827,106.877624695142,108.282834644878,109.687613268304,111.09195730953,112.495863505252,113.89932859381,115.302349322298,116.704922458147,118.107044794015,119.508713157125,120.909924415124,122.310675482933,123.710963328168,125.110784976801,126.510137517987,127.909018109731,129.307423980908,130.705352437926,132.102800867086,133.499766737386,134.896247604493,136.292241112673,137.687744998761,139.082757092768,140.477275319963,141.871297705142,143.264822370742,144.657847540943,146.05037154188,147.44239280248,148.833909855942,150.22492134096,151.615425999997,153.00542268367,154.394910347387,155.78388805422,157.172354973303,158.560310380557,159.947753660026,161.334684300721,162.721101898664,164.107006157102,165.492396883442,166.877273991742,168.261637500529,169.645487531928,171.028824312474,172.411648171812,173.793959541683,175.175758955203,176.557047046004,177.937824547847
-88.6219039036863,-85.8854401548489,-83.2311761507447,-80.6538260249495,-78.1484630760158,-75.7104934333177,-73.3356318282163,-71.019879286502,-68.759502576893,-66.5510152647598,-64.3911602339459,-62.2768935532026,-60.2053695742088,-58.1739271602833,-56.1800769502465,-54.2214895738201,-52.2959847434251,-50.401521146681,-48.5361870822812,-46.6981917720097,-44.8858573051736,-43.0976111566642,-41.331979241008,-39.5875794562821,-37.8631156849144,-36.157372211261,-34.4692085290982,-32.7975545071364,-31.1414058868126,-29.4998200873161,-27.8719122965836,-26.2568518225148,-24.6538586943042,-23.0622004869381,-21.4811893567289,-19.9101792750214,-18.3485634412882,-16.7957718651422,-15.2512691073744,-13.7145521659358,-12.1851484976116,-10.6626141674075,-9.14653211525632,-7.63651053227005,-6.13218134093353,-4.63319876886021,-3.13923801417576,-1.64999399127322,-0.165180156899112,1.31547259288834,2.79221695720025,4.26529020149127,5.73491507003467,7.20130064174054,8.66464313590922,10.1251266676132,11.5829239588106,13.0381970066759,14.4910977116754,15.9417684687304,17.3903427230939,18.8369454934445,20.2816938649654,21.7246974514306,23.1660588323461,24.6058739641208,26.044232566449,27.4812184869628,28.9169100444415,30.3513803529482,31.7846976263622,33.2169254659093,34.6481231316086,36.0783457964908,37.5076447892893,38.9360678198453,40.3636591947059,41.7904600186121,43.2165083852253,44.641839557431,46.0664861360106,47.4904782206099,48.9138435625289,50.3366077026135,51.758794111231,53.1804243117612,54.6015180024262,56.0220931681585,57.442166188759,58.8617519388773,60.280863883405,61.699514167488,63.1177137016564,64.5354722414726,65.9527984634794,67.3697000366969,68.7861836893401,70.2022552732107,71.6179198236368,73.0331816152496,74.4480442175712,75.8625105418975,77.2765828934948,78.6902630127157,80.1035521183114,81.5164509496549,82.9289598009213,84.3410785586369,85.7528067363729,87.164143503025,88.5750877154742,89.9856379452075,91.3957925056465,92.8055494754064,94.2149067236946,95.6238619316719,97.032412612208,98.4405561306093,99.8482897218053,101.255610509536,102.662515520158,104.069001699846,105.475065927142,106.880705027752,108.28591578606,109.690694958802,111.095039282065,112.498945486052,113.902410302376,115.305430473331,116.708002760397,118.110123951943,119.511790871753,120.913000382972,122.313749397646,123.714034880208,125.113853854715,126.513203407907,127.912080695522,129.310482946188,130.708407464458,132.105851635816,133.50281292889,134.899288898714,136.295277190052,137.690775539053,139.085781776751,140.480293829089,141.874309721159,143.267827576469,144.660845620331,146.053362179949,147.445375686133,148.836884673231,150.227887781182,151.618383755572,153.008371447487,154.397849815342,155.786817923227,157.175274943581,158.563220153995,159.950652941061,161.337572795797,162.723979317632,164.109872211365,165.495251287589,166.880116462658,168.264467757863,169.648305298379,171.031629313665,172.414440135019,173.796738197948,175.178524038495,176.559798293415,177.940561698891
-88.563152652922,-85.8300915951247,-83.1790194089328,-80.6046641330095,-78.102111971291,-75.6667810362684,-73.2943971932139,-70.980971818457,-68.7227813088948,-66.5163481902775,-64.3584236895774,-62.2459716490428,-60.176153665885,-58.1463153604228,-56.1539736754159,-54.1968051260981,-52.2726349202626,-50.3794268811642,-48.5152741064196,-46.6783903070427,-44.8671017708016,-43.0798399025948,-41.3151342966151,-39.5716062980266,-37.8479630179964,-36.1429917681698,-34.4555548810294,-32.7845848883262,-31.1290800304253,-29.4881000716118,-27.8607624023019,-26.2462384000136,-24.6437500376297,-23.0525667171217,-21.4720023136036,-19.9014124135974,-18.3401917363637,-16.787771722247,-15.243618278578,-13.7072296706815,-12.1781345494915,-10.6558901046378,-9.14008033544224,-7.63031443234729,-6.12622525878572,-4.62746793063536,-3.13371848293531,-1.64467262014517,-0.160044544042591,1.32043414586877,2.79701548477846,4.26993611202784,5.73941817965607,7.20567020798671,8.66888788843198,10.1292548372911,11.5869433057103,13.0421148452388,14.4949209357093,15.9455035741838,17.3939958301333,18.8405223667061,20.2851999326642,21.7281378238044,23.1694383194633,24.6091970911755,26.047503589475,27.4844414077377,28.9200886237956,30.3545181242611,31.7877979068567,33.219991369217,34.6511575780937,36.0813515243644,37.5106243628162,38.9390236407266,40.3665935095135,41.793374926909,43.2194058485671,44.6447214055206,46.0693540749353,47.4933338393068,48.9166883370863,50.3394430053516,51.7616212148336,53.1832443942118,54.6043321528072,56.0249023915708,57.4449714103357,58.8645540085263,60.2836635795103,61.7023122015888,63.1205107214037,64.5382688342822,65.9555951599884,67.3724973135855,68.7889819730588,70.205054942138,71.6207212110203,73.0359850118625,74.4508498733327,75.8653186699375,77.2793936701393,78.6930765805536,80.1063685892967,81.5192704051839,82.9317822939231,84.343904116643,85.7556353612628,87.166975173989,88.5779223893383,89.9884755584621,91.3986329750732,92.8083927004667,94.2177525865602,95.6267102991368,97.0352633356799,98.443409048134,99.8511446585361,101.258467279426,102.665373925349,104.071861532045,105.477926968861,106.883567052875,108.28877856096,109.693558239983,111.097902822038,112.501809029449,113.905273588829,115.308293236808,116.710864730206,118.112984853839,119.514650426858,120.915858309045,122.316605410006,123.71688869122,125.116705174291,126.516051944612,127.914926156313,129.313325035894,130.711245887646,132.108686096132,133.505643128813,134.902114541608,136.29809797851,137.693591176023,139.088591964999,140.483098272819,141.877108124405,143.270619644875,144.66363106025,146.056140699017,147.448146992982,148.83964847834,150.230643796586,151.621131694511,153.011111025326,154.400580748856,155.789539932172,157.177987748562,158.56592347875,159.953346510171,161.340256337717,162.726652562124,164.112534890701,165.497903136565,166.882757218586,168.267097160208,169.650923089418,171.034235238322,172.417033941148,173.799319635795,175.181092860827,176.562354254716,177.943104557792
-88.5090454600781,-85.7791179385854,-83.1309851091191,-80.559387813053,-78.0594241354113,-75.6265232220253,-73.2564211893675,-70.9451389442504,-68.6889617482922,-66.4844203774649,-64.3282737418086,-62.2174928406691,-60.149245943093,-58.1208848910696,-56.1299324331287,-54.1740705033005,-52.251129370678,-50.3590775864552,-48.4960126687966,-46.6601524617528,-44.8498271202379,-43.0634716682799,-41.2996190885528,-39.5568938998649,-37.8340061880469,-36.1297460524318,-34.442978439994,-32.7726383343917,-31.1177262773544,-29.4773041942872,-27.8504915033602,-26.2364614873383,-24.634437910152,-23.0436918567496,-21.4635387838196,-19.8933357665858,-18.3324789242911,-16.7804010147895,-15.2365691850946,-13.7004828686015,-12.1716718155639,-10.6496942514431,-9.13413515188392,-7.62460462689268,-6.12073640751987,-4.62218642718744,-3.12863149191963,-1.6397680339042,-0.155310941381913,1.32500753856556,2.80143883002108,4.27421899403805,5.74356963861356,7.20969876926472,8.67280159092832,10.1330612606333,11.5906495956753,13.0457277375222,14.4984467783169,15.9489483488883,17.397365172019,18.8438215838184,20.2884340230574,21.7313114929563,23.1725559956012,24.6122629408665,26.0505215314207,27.4874151259039,28.9230215807418,30.3574135722311,31.7906589001795,33.2228207739303,34.653958082156,36.0841256477837,37.5133744666233,38.9417519347763,40.3693020610906,41.7960656689838,43.2220805857905,44.6473818219661,46.0720017400213,47.4959702140794,48.9193147807685,50.3420607803047,51.7642314906687,53.1858482550866,54.6069306003694,56.0274963495336,57.4475617294491,58.8671414698014,60.2862488989367,61.704896032504,63.1230936587518,64.5408514175816,65.9581778767566,67.3750806015094,68.7915662233306,70.2076405017719,71.6233083853928,73.0385740672806,74.4534410388077,75.8679121399274,77.2819896062539,78.695675112952,80.1089698192886,81.5218744060074,82.9343891143537,84.3465137796159,85.7582478676277,87.1695905030209,88.5805404997547,89.991096390606,91.4012564513718,92.8110187272103,94.2203810541389,95.629341082682,97.0378962980665,98.4460440388074,99.8537815160591,101.261105830177,102.668013986021,104.074502910104,105.480569462869,106.886210453509,108.291422650874,109.696202796089,111.10054761406,112.504453821352,113.907918139269,115.31093730047,116.713508056911,118.115627189295,119.517291513141,120.918497886214,122.319243214366,123.719524457116,125.11933863393,126.518682828279,127.917554192481,129.315949953246,130.713867412372,132.111303954426,133.508257046735,134.904724244162,136.300703191106,137.696191624219,139.091187374812,140.485688370587,141.879692637255,143.273198300698,144.666203587857,146.058706828227,147.450706455039,148.842201005698,150.233189122935,151.62366955553,153.013641158174,154.403102892303,155.792053826439,157.180493136715,158.568420104868,159.955834121146,161.342734681683,162.72912139031,164.114993955452,165.500352193486,166.885196024742,168.269525475719,169.653340676201,171.036641860697,172.419429366474,173.801703632663,175.183465200946,176.564714713352,177.9454529116
-88.4595506515428,-85.7324893912588,-83.0870452174435,-80.5179706792806,-78.0203747276318,-75.5896965983128,-73.2216817831901,-70.912359905091,-68.6580243330611,-66.4552133889007,-64.300693009109,-62.191440739301,-60.124630950465,-58.0976211757451,-56.1079394730108,-54.153272733296,-52.2314558543958,-50.3404617129586,-48.4783918697754,-46.6434679499349,-44.834023645176,-43.0484972900612,-41.2854249670602,-39.5434340981905,-37.8212374896631,-36.1176277913627,-34.4314723413324,-32.7617083670362,-31.1073385150201,-29.4674266870906,-27.8410941565613,-26.2275159501357,-24.6259174689811,-23.0355713376794,-21.4557944607295,-19.8859452749207,-18.3254211796792,-16.7736561380602,-15.2301184320781,-13.6943085628311,-12.1657572867411,-10.644023777023,-9.12869390207868,-7.61937861364675,-6.11571243604448,-4.61735205075502,-3.12397496946716,-1.63527828993756,-0.150977528245733,1.32919447574471,2.80548858682016,4.27814033840951,5.74737083920991,7.21338762398545,8.67638545317698,10.1365470633227,11.5940438747481,13.0490366537176,14.5016761379948,15.9521036229409,17.4004515145467,18.8468438492917,20.2913967830567,21.7342190505529,23.1754124007587,24.6150720038135,26.0532868356845,27.4901400407033,28.9257092722297,30.3600670144187,31.793280885574,33.2254139232135,34.6565248534812,36.0866683447967,37.5158952479622,38.9442528209681,40.3717849421562,41.798532311541,43.2245326392188,44.6498208257758,46.0744291285823,47.4983873231285,48.9217228521428,50.3444609669612,51.7666248618808,53.1882358010159,54.6093132360286,56.0298749190358,57.4499370095439,58.8695141737817,60.2886196802583,61.7072654877251,63.1254623310658,64.5432197992483,65.9605464123213,67.377449690284,68.7939362218487,70.2100117264986,71.6256811143314,73.0409485428108,74.4558174696193,75.8702907024021,77.2843704468383,78.6980583501877,80.1113555442003,81.5242626849403,82.9367799900256,84.3489072727294,85.760643977174,87.1719892088798,88.5829417640861,89.9935001573633,91.4036626487279,92.8134272676783,94.2227918366517,95.6317539926591,97.0403112085203,98.4484608112017,99.8562000009875,101.263525868512,102.670435409156,104.076925541119,105.482993116451,106.888634937282,108.293847764983,109.698628335565,111.102973366919,112.506879571387,113.910343665137,115.313362376502,116.715932452802,118.118050672054,119.519713846832,120.920918831221,122.321662528938,123.721941897506,125.121753953993,126.521095781192,127.91996452929,129.318357423798,130.716271766898,132.113704940888,133.510654413875,134.90711773983,136.303092563632,137.698576622048,139.093567746064,140.488063864429,141.8820630034,143.275563289558,144.668562950681,146.061060317681,147.453053824009,148.844542009194,150.235523516963,151.6259970974,153.015961606775,154.405416008418,155.794359372204,157.182790875754,158.570709803153,159.958115546172,161.345007603503,162.731385579131,164.117249185445,165.502598240093,166.887432665477,168.271752490585,169.655557847066,171.038848971321,172.42162620303,173.803889984098,175.185640858534,176.566879469019,177.947606561203
-88.4146392994589,-85.69017874185,-83.0471741295972,-80.4803886330037,-77.9849410598712,-75.5562797999407,-73.1901588502188,-70.8826157408056,-68.6299511964221,-66.4287103844808,-64.2756656160866,-62.1678003762904,-60.1022945724899,-58.0765109005192,-56.0879822364332,-54.1343999676188,-52.2136031924704,-50.3235687117549,-48.4624017547521,-46.6283273765416,-44.8196824786631,-43.0349083993349,-41.2725440330842,-39.5312194369364,-37.8096498856791,-36.1066303427227,-34.4210303166346,-32.7517890700569,-31.0979111604963,-29.4584622816116,-27.8325653921244,-26.2193970994691,-24.618184291638,-23.0282009901563,-21.448765413085,-19.8792372320524,-18.3190150093163,-16.7675338014852,-15.2242629199451,-13.6887038352883,-12.1603882167431,-10.6388760974842,-9.12375415631561,-7.61463410857914,-6.11115119872488,-4.61296278681152,-3.11974702538561,-1.63120161551984,-0.147042643635928,1.33299651298717,2.80916621107951,4.28170150493082,5.75082305097936,7.21673795655295,8.67964057817818,10.1397132716151,11.5971270962099,13.0520424783222,14.5046098334331,15.954970152862,17.4032555555318,18.8495898055072,20.2940888013051,21.7368610349999,23.1780080257469,24.6176247259184,26.0557999055954,27.4926165147286,28.9281520224233,30.3624787386066,31.7956641169562,33.2277710384757,34.6588580821174,36.0889797766664,37.5181868404387,38.9465264065511,40.3740422344888,41.8007749126825,43.2267620455783,44.6520384325262,46.076636236685,47.5005851434238,48.9239125101565,50.3466435082142,51.7688012560437,53.1904069450888,54.611479959046,56.0320379859257,57.4520971240758,58.871671982538,60.2907757748856,61.7094204088362,63.1276165698963,64.5453738020976,65.9627005813164,67.3796043867328,68.7960917683363,70.2121684089665,71.6278391842728,73.0431082191761,74.4579789407691,75.8724541275004,77.2865359580175,78.7002260530431,80.1135255213255,81.5264349957844,82.9389546715238,84.3510843429904,85.7628234353317,87.1741710354391,88.5851259231785,89.9956865973531,91.4058513036331,92.8156180576013,94.2249846686164,95.6339487621439,97.0425077993357,98.4506590967096,99.8583998454347,101.265727125773,102.672637926285,104.079129155985,105.485197660995,106.890840235145,108.296053635299,109.700834590351,111.10517981371,112.509086013334,113.912549900475,115.31556819924,116.718137654953,118.120255040436,119.521917165785,120.92312088373,122.323863094682,123.724140754951,125.123950879226,126.523290548841,127.92215691327,129.320547196955,130.71845870098,132.115888807704,133.512834983715,134.909294784116,136.305265853414,137.700745927824,139.095732839326,140.490224516939,141.884218987682,143.277714378343,144.670708917772,146.063200937699,147.455188873374,148.846671264135,150.237646755661,151.62811409928,153.018072152736,154.407519880464,155.796456354498,157.184880753151,158.572792363035,159.960190576772,161.347074894875,162.733444924264,164.119300378281,165.50464107636,166.889466943123,168.273778008727,169.657574407449,171.040856378459,172.423624262238,173.805878502962,175.187619645754,176.568848338453,177.949565326231
-88.3742851922549,-85.652161333953,-83.0113486453789,-80.4466198378287,-77.9531025742447,-75.5262534674475,-73.1618341552945,-70.8558892715632,-68.6047261488362,-66.4048961048681,-64.2531771777993,-62.1465581884785,-60.0822240182156,-58.05754200166,-56.0700493430521,-54.11744147043,-52.1975612553379,-50.3083890247553,-48.4480333034428,-46.6147222292179,-44.806795586481,-43.0226974127935,-41.2609691296868,-39.5202431610815,-37.7992369998015,-36.0967476889079,-34.4116466863179,-32.742875083891,-31.0894391551597,-29.4504062058883,-27.8249007072139,-26.2121006882547,-24.611234372277,-23.0215770362265,-21.4424480783137,-19.8732082805769,-18.3132572494773,-16.7620310243959,-15.2189998416567,-13.6836660430488,-12.1555621180505,-10.6342488727762,-9.11931371395286,-7.6103690434386,-6.10705075237439,-4.60901681150057,-3.11594594782349,-1.62753640590785,-0.143504783660035,1.33641505767827,2.81247301927431,4.28490372436022,5.75392742295236,7.2197508383403,8.68256796418382,10.1425608137247,11.5999001225908,13.0547460108664,14.507248604917,15.9575486231585,17.4057779254835,18.8520600317671,20.2965106099164,21.7392379333224,23.1803433141261,24.6199215095355,26.058061104948,27.4948448750639,28.9303501237529,30.3646490043344,31.7978088219942,33.2298923182225,34.6609579388193,36.0910600870559,37.5202493626919,38.9485727862804,40.3760740115156,41.8027935250305,43.2287688368014,44.6540346555346,46.0786230595244,47.5025636533112,48.9258837175753,50.3486083518147,51.770760606033,53.1923616066055,54.6134306764237,56.0339854455444,57.4540419575925,58.8736147698442,60.292717046943,61.7113606502185,63.1295562219117,64.5473132642143,65.9646402141007,67.3815445142454,68.7980326795893,70.2141103600411,71.6297824003286,73.0450528963262,74.4599252471075,75.8744022057236,77.2884859249704,78.7021780043586,80.115479529555,81.5283911134459,82.9409129322105,84.3530447615328,85.7647860097378,87.1761357478179,88.5870927405147,89.9976554728549,91.4078221769628,92.8175908562254,94.2269593085477,95.6359251486035,97.0444858275058,98.4526386519048,99.8603808046413,101.267709358131,102.674621292535,104.081113510562,105.487182851302,106.892826103132,108.298040017238,109.702821317052,111.107166711984,112.511072905181,113.914536604115,115.317554529325,116.720123422575,118.122240054889,119.523901233393,120.925103807679,122.325844677013,123.726120795476,125.125929176639,126.525266900228,127.924131115103,129.322519044203,130.720427988166,132.117855328969,133.51479853334,134.911255155269,136.30722283971,137.702699322968,139.097682438074,140.492170113235,141.88616037632,143.279651355001,144.672641279018,146.06512848055,147.457111395873,148.848588565368,150.239558636257,151.630020360312,153.019972596769,154.409414311519,155.798344577772,157.186762575437,158.574667592405,159.962059023451,161.348936369838,162.735299240516,164.121147350104,165.506480519924,166.891298676826,168.275601852252,169.659390182233,171.042663907471,172.425423370883,173.807669018007,175.18940139696,176.570621155015,177.951329041123
-88.3384648089208,-85.6184150421406,-82.9795479457867,-80.416644698781,-77.9248408226828,-75.4996002281858,-73.1366913344656,-70.8321650800605,-68.5823346620112,-66.3837568566647,-64.2332147851012,-62.1277020041238,-60.0644078096635,-58.0407036536889,-56.0541305813179,-54.1023876076565,-52.1833209533552,-50.2949140748216,-48.4352784222203,-46.6026448690633,-44.7953557594752,-43.0118575265053,-41.2506938346457,-39.5104992089724,-37.7899931113697,-36.0879744301441,-34.4033163540904,-32.7349615987856,-31.0819179614227,-29.4432541778652,-27.8180960623687,-26.2056229057454,-24.6050641166366,-23.0156960868258,-21.4368392617579,-19.8678554088974,-18.3081450620063,-16.7571451329381,-15.214326679115,-13.6791928155232,-12.1512767598834,-10.6301400040754,-9.11537060164613,-7.60658156345909,-6.1034093551653,-4.6055124886733,-3.11257020205142,-1.62428122189209,-0.140362600446849,1.33945137228125,2.81541019206298,4.28774809995002,5.75668498530388,7.22242722976245,8.68516850592079,10.1450905218291,11.6023637263311,13.0571479675942,14.50959311572,15.9598396458787,17.4080191887595,18.8542550477468,20.2986626849912,21.7413501801865,23.1824186622845,24.621962714719,26.0600707587205,27.4968254138896,28.9323038371327,30.3665780428472,31.799715204626,33.2317779392832,34.6628245752845,36.0929094044239,37.5220829208217,38.9503920451099,40.3778803369152,41.8045881933874,43.2305530396207,44.6558095047632,46.0803895912748,47.5043228315905,48.927636439259,50.3503554489322,51.7725028503126,53.1940997124928,54.6151653037952,56.0357172029607,57.4557714050223,58.8753424213789,60.294443373132,61.7130860807343,63.1312811476344,64.54903803915,65.9663651577768,67.3832699136465,68.799758790319,70.2158374089357,71.6315105869087,73.0467823934616,74.4616562039216,75.8761347473761,77.2902201562277,78.7039140083635,80.1172173705218,81.5301308367759,82.9426545670589,84.3547883207927,85.7665314908805,87.1778831348722,88.5888420031938,89.9994065693521,91.4095750529603,92.8193454468291,94.2287155386451,95.6376829336135,97.0462450729941,98.4543992570435,99.862142658888,101.269472344507,102.67638528754,104.082878384399,105.488948467915,106.894592321888,108.299806691622,109.704588297373,111.10893384303,112.512840028559,113.916303558612,115.319321149626,116.721889541002,118.124005501313,119.525665835013,120.926867389918,122.327607063729,123.727881808508,125.127688636888,126.527024627186,127.925886927326,129.324272759751,130.722179424194,132.119604302253,133.51654486053,134.912998653247,136.308963324182,137.704436611103,139.099416346138,140.493900458789,141.887886976941,143.281374028921,144.674359845067,146.066842758549,147.458821205828,148.850293729365,150.241258975849,151.631715699293,153.021662759695,154.411099123777,155.800023866567,157.188436168611,158.576335319574,159.963720715161,161.35059185879,162.736948360044,164.122789935573,165.50811640751,166.892927705044,168.277223860691,169.6610050126,171.044271401846,172.427023374243,173.809261376711,175.190985958381,176.572197769102,177.952897558587
-88.3071572954044,-85.5889202491733,-82.9517535719241,-80.3904458418771,-77.9001394480907,-75.4763046788317,-73.114715878957,-70.8114294967467,-68.5627638545482,-66.3652804987367,-64.2157669927166,-62.1112210317095,-60.0488357699356,-58.025986257298,-56.0402168968129,-54.0892298374027,-52.1708742268964,-50.2831362568241,-48.4241299342806,-46.592088523404,-44.785356605535,-43.0023827072428,-41.2417124537693,-39.5019822064854,-37.7819131476518,-36.0803057790392,-34.3960348021712,-32.7280443516109,-31.0753435556747,-29.4370024014951,-27.812147875903,-26.1999603734353,-24.5996703389548,-23.0105551370127,-21.431936130386,-19.8631759472074,-18.303675931266,-16.7528737572345,-15.2102412004251,-13.6752820513425,-12.1475301644364,-10.6265476312916,-9.11192307043024,-7.60327002485417,-6.10022546259052,-4.60244836910209,-3.10961842867817,-1.62143478862993,-0.137614899214554,1.34210657468958,2.81797877507296,4.29023560913129,5.75909664969043,7.22476798136591,8.68744299465726,10.1473031323738,11.6045185914797,13.0592489831142,14.5116439527122,15.9618437634473,17.4099798454977,18.8561753125239,20.300545447635,21.7431981609414,23.1842344210158,24.6237486596319,26.0618291545156,27.4985583895672,28.9340133931535,30.3682660584968,31.8013834438655,33.2334280578308,34.6644581255927,36.094527841318,37.5236876073261,38.9519842569815,40.3794612669207,41.8061589570407,43.23211467779,44.6573629889165,46.0819358257968,47.5058626591677,48.9291706428736,50.3518847556902,51.7740279341815,53.1956211970103,54.6166837652894,56.0372331727488,57.4572853723358,58.8768548347247,60.2959546434127,61.7145965828198,63.132791222809,64.550547996279,65.9678752758903,67.384780442282,68.8012699531462,70.2173494036938,71.6330235870114,73.0482965503487,74.4631716463296,75.877651585218,77.2917384796672,78.7054338898674,80.1187388657391,81.5316539853391,82.9441793940128,84.3563148365198,85.7680596932391,87.1794130087896,88.5903735223519,90.0009396958104,91.4111097396957,92.8208816365894,94.2302531654006,95.6392219224081,97.0477853421635,98.4559407163434,99.8636852123847,101.271015889466,102.677929715571,104.084423580904,105.490494314465,106.896138694583,108.301353463015,109.706135334911,111.110481012048,112.514387190189,113.917850570633,115.320867867539,116.723435818336,118.125551188354,119.527210780837,120.928411441515,122.329150066604,123.729423606633,125.129229073574,126.528563544324,127.927424166147,129.325808160567,130.72371282717,132.121135547184,133.51807378678,134.914525099841,136.310487130404,137.705957616507,139.100934390286,140.495415381572,141.889398618686,143.282882230586,144.675864448181,146.068343604993,147.460318138656,148.851786591861,150.24274761279,151.633199955652,153.02314248211,154.412574160073,155.801494064473,157.189901378012,158.577795391286,159.965175501145,161.352041211513,162.738392134553,164.124227987505,165.509548593703,166.894353883964,168.278643891777,169.662418757107,171.045678722614,172.428424134335,173.81065544263,175.192373195939,176.573578046798,177.954270746415
-88.2803444433154,-85.5636598270486,-82.9279494071859,-80.3680080980182,-77.8789841691197,-75.456353370041,-73.0958951206625,-70.7936705866098,-68.5460024794551,-66.3494564303787,-64.2008238068275,-62.0971058484468,-60.0354990131981,-58.0133814323547,-56.0283003842262,-54.0779607016664,-52.1602140393998,-50.2730489311946,-48.4145815738061,-46.5830472790955,-44.7767925440421,-42.9942676883098,-41.2340200161732,-39.4946874616119,-37.7749926805075,-36.0737375563364,-34.3897980861091,-32.7221196195574,-31.0697124259693,-29.4316475623589,-27.8070530217008,-26.1951101426229,-24.5950502572476,-23.0061515649643,-21.4277362119972,-19.85916756482,-18.2998476612108,-16.7492148287191,-15.2067414573384,-13.6719319166214,-12.1443206061707,-10.623470131203,-9.10896959351788,-7.60043299324229,-6.09749772779389,-4.59982318782647,-3.10708944051345,-1.61899599368422,-0.135260637952967,1.34438164075885,2.82017968105077,4.29236710395332,5.76116321213544,7.2267738349945,8.68939212190384,10.149199287717,11.6063653145993,13.0610496099757,14.5134016273897,15.9635614481413,17.4116603308307,18.8578212266677,20.3021592651174,21.7447822110792,23.1857908957773,24.6252796210841,26.0633365423033,27.5000440264477,28.9354789924125,30.3697132288285,31.8028136960726,33.2348428092395,34.6658587051335,36.0959154951997,37.5250635023489,38.9533494853227,40.3808168501019,41.8075058495231,43.2334537709883,44.6586951139333,46.0832617574331,47.5071831183026,48.9304863000421,50.3531962330613,51.7753358081677,53.1969260018164,54.617985993977,56.0385332801062,57.4585837765151,58.8781519199019,60.2972507609856,61.715892053686,63.1340863384674,64.551843021073,65.9691704479527,67.3860759760267,68.8025660388709,70.2186462105843,71.6343212634572,73.0495952249024,74.4644714300347,75.8789525710521,77.2930407447292,78.7067374960025,80.1200438599495,81.5329604015996,82.945487253184,84.3576241473016,85.7693704532082,87.1807252046913,88.5916871314193,90.0022546861209,91.4124260693222,92.822199256546,94.2315720186553,95.6405419448693,97.0491064634776,98.4572628591413,99.8650082939002,101.272339821392,102.679254404527,104.085748929227,105.491820219779,106.897465050966,108.302680160319,109.70746226024,111.111808049038,112.515714219632,113.919177470814,115.322194514766,116.72476208592,118.126876948795,119.528535904242,120.929735796724,122.330473520903,123.730746026332,125.130550324088,126.529883490054,127.928742670599,129.327125087274,130.725028038479,132.122448905729,133.519385154624,134.915834339252,136.311794103578,137.707262185882,139.102236418058,140.496714730664,141.890695151966,143.284175811614,144.677154940875,146.069630873965,147.461602049051,148.853067009672,150.244024404398,151.63447298907,153.024411625056,154.413839281577,155.802755034748,157.191158068457,158.579047673478,159.966423247585,161.353284297336,162.739630433931,164.12546137707,165.510776951141,166.895577087528,168.279861821069,169.663631293259,171.046885747204,172.429625531557,173.811851095879,175.193562991969,176.574761871771,177.955448489126
-88.2580106728552,-85.5426191197703,-82.908121660718,-80.3493184867452,-77.861362765268,-75.4397347942321,-73.0802182194756,-70.778878136731,-68.5320409125101,-66.3362755803885,-64.1883766761296,-62.0853483915005,-60.0243899357386,-58.0028820072711,-56.0183742786525,-54.0685738185104,-52.1513343694602,-50.2646464164064,-48.4066279795308,-46.5755160762059,-44.7696587997719,-42.9875079626792,-41.2276122678614,-39.4886109593193,-37.7692279206208,-36.068266185873,-34.3846028309417,-32.7171842183259,-31.0650215665158,-29.4271868252782,-27.8028088245914,-26.1910696897529,-24.5912014920893,-23.0024831261699,-21.4242373913063,-19.8558282683147,-18.2966583731961,-16.7461665774887,-15.2038257833794,-13.6691408425151,-12.1416466086541,-10.6209061145213,-9.10650886569283,-7.59806924157903,-6.09522499777279,-4.5976358631641,-3.10498222286725,-1.6169638856619,-0.133298925363476,1.34627740437452,2.82201368973898,4.29414331337244,5.76288535288688,7.22844542483097,8.69101647776836,10.1507795371727,11.6079044054985,13.0625503211423,14.5148665772924,15.9649931040638,17.4130610170782,18.8591931318607,20.3035044503261,21.7461026167777,23.187088347313,24.6265558358913,26.0645931353906,27.5012825162878,28.9367008054126,30.370919705147,31.8040060937469,33.2360223085636,34.6670264130937,36.0970724492465,37.5262106739432,38.9544877841693,40.3819471268506,41.808628898854,43.2345703349183,44.659805884794,46.0843673802502,47.5082841935795,48.9315833854131,50.3542898465158,51.7764264300693,53.1980140765677,54.6190719320696,56.0396174600164,57.4596665464813,58.8792335994092,60.2983316424773,61.7169724041207,63.1351664005994,64.5529230147962,65.9702505715745,67.3871564071433,68.803646936445,70.2197277148104,71.6354034978138,73.0506782964137,74.4655554307736,75.8800375781493,77.2941268227201,78.7078246953187,80.1211322200552,81.5340499502618,82.9465780072633,84.3587161140009,85.7704636305678,87.1818195814251,88.5927826885314,90.0033513953449,91.413523897504,92.8232981619103,94.232671953309,95.6416428552371,97.0502082899607,98.4583655384269,99.8661117558872,101.273443992646,102.680359207119,104.086854281897,105.492926036899,106.898571243639,108.303786637194,109.708568926822,111.112914807673,112.516820971451,113.920284114179,115.323300946309,116.725868200631,118.127982639285,119.529641062271,120.930840313296,122.331577285212,123.731848926789,125.131652247963,126.530984324708,127.929842302355,129.328223401781,130.726124921751,132.12354424254,133.520478830312,134.916926238603,136.312884111944,137.708350187736,139.103322299395,140.497798376581,141.891776448106,143.285254644607,144.678231197096,146.070704440494,147.462672813345,148.854134860086,150.24508922966,151.635534678411,153.025470068957,154.414894370283,155.803806660453,157.192206123173,158.580092050554,159.967463841733,161.354321002722,162.740663146975,164.126489994336,165.511801370334,166.896597207303,168.280877541589,169.664642514773,171.047892371625,172.430627461312,173.812848234775,175.194555244462,176.575749144553,177.956430688242
-88.2401430163754,-85.5257859289738,-82.8922588541685,-80.3343662043625,-77.8472650649485,-75.4264393721483,-73.0676761530846,-70.7670436464582,-68.5208711433575,-66.3257303987803,-64.1784184832007,-62.0759419495749,-60.0155022092892,-57.9944820131494,-56.0104329497269,-54.061063876109,-52.1442302055555,-50.2579239833785,-48.4002646888629,-46.5694907039028,-44.7639513979718,-42.9820997791032,-41.2224856686673,-39.4837493585875,-37.7646157145795,-36.0638886912977,-34.3804462277822,-32.7132354965839,-31.0612684768737,-29.4236178306479,-27.799413058427,-26.1878369151338,-24.5881220634955,-22.9995479533591,-21.4214379078187,-19.853156398444,-18.2941065039478,-16.7437275310204,-15.2014927918499,-13.6669075236512,-12.1395069433759,-10.6188544263728,-9.1045398003788,-7.59617774884009,-6.09340631407389,-4.59588549492446,-3.103295931731,-1.61533767313529,-0.131729020200225,1.3477945598712,2.82348145041789,4.29556484381828,5.76426363779308,7.22978327828702,8.69231655359766,10.1520443370902,11.6091362880886,13.0637515092943,14.5160391657909,15.9661390667216,17.4141822131251,18.8602913125958,20.3045812642455,21.7471596157358,23.1881269919602,24.627577500192,26.0655991112687,27.5022740181011,28.9376789744673,30.3718856132956,31.8049607471975,33.236966651604,34.6679613310906,36.0979987718408,37.5271291786802,38.955399198301,40.3828521305617,41.8095281280284,43.2354643832482,44.6606953056283,46.0852526894793,47.5091658713347,48.9324618777415,50.3551655678032,51.7772997645018,53.1988853794239,54.6199415312335,56.0404856583393,57.4605336223738,58.880099808327,60.299197218322,61.717837560184,63.1360313307645,64.5537878950469,65.9711155601122,67.3880216461806,68.804512552851,70.2205938207123,71.6362701915523,73.051545663885,74.4664235447264,75.8809065011602,77.2949966049326,78.708695378106,80.1220038342136,81.5349225181233,82.9474515421897,84.3595906218603,85.7713391088526,87.1826960214015,88.5936600740419,90.0042297053012,91.4144031036646,92.8241782308401,94.2335528474436,95.6425245313505,97.0510907009501,98.4592486313257,99.8669954762163,101.274328281274,102.681244001479,104.087739515859,105.49381164296,106.899457150211,108.304672771066,109.709455211964,111.113801166759,112.517707324445,113.921170379794,115.324187041995,116.726754041552,118.12886814,119.530526136504,120.931724872749,122.332461241341,123.732732190712,125.132534729595,126.531865933031,127.930722946542,129.329102990391,130.727003363044,132.124421445132,133.521354701343,134.9178006866,136.313757044547,137.709221512828,139.104191925392,140.498666211471,141.892642401056,143.286118623672,144.67909311177,146.07156420022,147.46353032846,148.854990040364,150.245941986781,151.636384923513,153.026317713699,154.415739327766,155.804648844027,157.193045446349,158.580928427585,159.968297187988,161.355151234455,162.741490180476,164.127313746946,165.512621760638,166.897414154011,168.281690964047,169.66545233307,171.048698508085,172.431429837765,173.813646773724,175.195349870266,176.576539780979,177.957217261186
-88.2267311056057,-85.5131505011944,-82.8803518101695,-80.323142613054,-77.8366829359166,-75.4164594458268,-73.058261707665,-70.7581603195483,-68.5124867672525,-66.3178148488565,-64.1709435370376,-62.0688811574206,-60.0088307735916,-57.9881766775051,-56.0044718957275,-54.0554266279054,-52.1388975407262,-50.2528778512311,-48.3954881338254,-46.5649677947243,-44.7596671612876,-42.9780401387329,-41.2186373879834,-39.4800999877366,-37.7611535407569,-36.0606026927695,-34.3773260310461,-32.7102713357032,-31.058451156533,-29.4209386912898,-27.7968639435143,-26.1854101399337,-24.5858103878523,-22.9973445542581,-21.4193363540508,-19.8511506286961,-18.2921908035238,-16.7418965122011,-15.1997413740534,-13.6652309162851,-12.1379006285387,-10.6173141429156,-9.10306152916121,-7.59475769921301,-6.09204091022337,-4.59457136395389,-3.10202989183108,-1.61411672343814,-0.130550329587606,1.34893366134474,2.82458348160708,4.29663218001645,5.76529851876916,7.23078781706323,8.69329274163692,10.1529940525323,11.6100613010749,13.0646534883872,14.5169196834045,15.9669996043278,17.415024166368,18.861115995515,20.3053899147232,21.7479533984036,23.1889070029591,24.6283447709199,26.0663546111338,27.5030186588718,28.938413612589,30.3726110532354,31.8056777443163,33.237675914302,34.6686635241283,36.0986945179911,37.5278190610124,38.9560837627025,40.3835318878855,41.8102035551897,43.2361359256095,44.6613633788961,46.0859176803618,47.5098281404131,48.9331217598825,50.3558233739006,51.7779557825034,53.1995398758311,54.6205947525121,56.0411378314495,57.4611849562385,58.8807504946467,60.2998474324884,61.7184874621568,63.1366810662077,64.5544375955461,65.9717653447664,67.388671621583,68.8051628137582,70.2212444512504,71.6369212656965,73.0521972452744,74.4670756891974,75.8815592544772,77.295650005488,78.7093494560711,80.1226586131363,81.5355780142452,82.9481077660197,84.3602475770039,85.7719967938315,87.1833544295957,88.5943191933935,90.0048895192514,91.4150635914185,92.8248393677176,94.2342146041507,95.6431868757165,97.0517535967009,98.4599120403987,99.8676593564685,101.274992588227,102.681908688165,104.088404533547,105.494476939516,106.900122672702,108.305338463769,109.710121018262,111.114467028329,112.518373181399,113.921836171145,115.324852704779,116.727419512851,118.129533355561,119.531191030943,120.932389380416,122.333125295658,123.733395724088,125.133197674815,126.532528222038,127.931384510885,129.329763761301,130.727663272009,132.125080422254,133.522012678367,134.918457593688,136.314412813003,137.709876073464,139.104845208802,140.499318149063,141.893292924043,143.286767663858,144.679740600437,146.072210069851,147.464174511199,148.855632469296,150.246582594381,151.637023643686,153.026954480153,154.416374075041,155.805281506306,157.193675959572,158.581556727689,159.968923211078,161.355774917107,162.742111460724,164.127932562096,165.513238048978,166.89802785496,168.282302017357,169.666060679163,171.049304087261,172.432032591911,173.814246645185,175.195946800786,176.577133715019,177.957808142061
-88.2177671619967,-85.5047055193752,-82.8723936432315,-80.3156412318365,-77.8296102762926,-75.4097892690446,-73.0519694708689,-70.752223056652,-68.5068829790542,-66.3125244015592,-64.1659475680424,-62.0641619890723,-60.0043718322949,-57.9839624197488,-56.0004877392449,-54.0516588872622,-52.1353333685781,-50.2495051833541,-48.3922956376222,-46.5619448224339,-44.7568037055976,-42.9753267912433,-41.2160653021273,-39.4776608423638,-37.7588395076908,-36.0584064052148,-34.3752405557767,-32.7082901459969,-31.0565681060958,-29.4191479922858,-27.795160144466,-26.183788105035,-24.5842652774305,-22.9958718083812,-21.4179316745189,-19.8498099641214,-18.2909103342813,-16.7406726374949,-15.198570698485,-13.6641102378448,-12.1368269274959,-10.6162845712482,-9.10207340084213,-7.59380848043764,-6.09112821130577,-4.59369293046024,-3.10118359737999,-1.61330056207811,-0.129762409430555,1.3496951249287,2.82532017203647,4.29734568486407,5.76599033533967,7.23145935702343,8.69394533637291,10.1536289571109,11.6106796984728,13.0652564939348,14.5175083478556,15.967574917897,17.4155870615563,18.8616673509925,20.3059305573277,21.7484841068945,23.1894285099215,24.6288577653106,26.0668597411146,27.503516533602,28.9389048046066,30.3730961001673,31.806157150598,33.2381501537272,34.6691330407791,36.0991597278363,37.5282803543357,38.9565415041797,40.3839864185142,41.8106551938406,43.2365849700033,44.6618101065504,46.0863623504092,47.5102709926844,48.9335630188035,50.3562632470048,51.7783944622001,53.1999775402473,54.6210315665484,56.0415739465898,57.4616205119963,58.8811856190554,60.300282242662,61.7189220652322,63.1371155592889,64.5548720665344,65.9721998732322,67.3891062786946,68.8055976629149,70.2216795489023,71.6373566608449,73.0526329811221,74.4675118014426,75.8819957750239,77.2960869592945,78.7097868636858,80.1230964900193,81.5360163710315,82.9485466098101,84.3606869107582,85.7724366160122,87.1837947351964,88.5947599748991,90.0053307657735,91.4155052884851,92.825281498838,94.2346571503299,95.6436298146517,97.0521969047721,98.4603556918592,99.868103322875,101.275436839938,102.682353193852,104.088849260336,105.494921852915,106.900567737175,108.305783642104,109.71056627267,111.114912319187,112.518818469093,113.922281414447,115.325297862397,116.727864542118,118.129978213557,119.531635674281,120.932833764663,122.333569376339,123.733839456813,125.133641013703,126.532971122048,127.931826926072,129.330205645836,130.728104579392,132.125521106678,133.52245269373,134.918896893461,136.314851351001,137.710313803551,139.105282084601,140.499754124757,141.893727953505,143.287201701159,144.68017360029,146.072641986472,147.464605299755,148.856062084326,150.247010991516,151.63745077819,153.02738030791,154.416798552376,155.805704589471,157.194097605326,158.581976893087,159.969341853303,161.356191994176,162.742526930408,164.128346383275,165.513650180918,166.89843825599,168.282710647802,169.666467499087,171.04970905694,172.432435671849,173.814647796887,175.196345986392,176.577530896072,177.958203281452
-88.213245988438,-85.500446094247,-82.8683797529607,-80.3118577305831,-77.8260430096314,-75.4064250029383,-73.0487958266816,-70.7492284508713,-68.5040565682467,-66.3098560306727,-64.1634277235995,-62.0617817547766,-60.0021228490307,-57.9818368478033,-55.9984782236158,-54.0497585253734,-52.1335356806432,-50.2478040844181,-48.3906854120876,-46.5604200995407,-44.7553594377936,-42.9739582335266,-41.2147679922478,-39.4764305834219,-37.7576723513426,-36.0572986361004,-34.3741886765555,-32.7072908645623,-31.0556183228726,-29.4182447878658,-27.7943007692983,-26.1829699682532,-24.5834859389842,-22.9951289678428,-21.4172231640416,-19.8491337399311,-18.2902644702867,-16.7400553174215,-15.1979802095912,-13.6635449651588,-12.136285348025,-10.6157652484694,-9.10157498018305,-7.59332968381239,-6.09066783326762,-4.59324983415576,-3.10075671015039,-1.61288887227693,-0.129364962638761,1.35007922877196,2.82569178182689,4.29770560124797,5.76633931360749,7.231798109279,8.69427453404626,10.153949233191,11.6109916497432,13.0655606828969,14.5178053044955,15.9678651414724,17.4158710226552,18.8619454926001,20.3062032966491,21.748751836543,23.1896915990757,24.629116561765,26.0671145718706,27.5037677058065,28.9391526069272,30.3733408037937,31.8063990103093,33.2383894079704,34.6693699136329,36.0993944294278,37.5285130809596,38.9567724398032,40.3842157353666,41.8108830529084,43.236811521185,44.662035489872,46.0865866961355,47.5104944226368,48.9337856455231,50.3564851752267,51.7786157890398,53.2001983558279,54.6212519534267,56.04179398153,57.4618402652188,58.8814051552368,60.3005016209976,61.7191413393168,63.1373347783302,64.5550912750231,65.9724191110182,67.38932558181,68.805817063268,70.2218990746805,71.6375763369883,73.0528528292392,74.4677318402753,75.8822160196418,77.2963074226495,78.7100075562768,80.1233174192389,81.5362375432883,82.9487680273584,84.3609085755915,85.7726585274205,87.1840168910055,88.5949823708736,90.005553396214,91.4157281465811,92.825504575966,94.2348804363785,95.6438532991911,97.0524205755667,98.4605795356166,99.8683273260076,101.275660986883,102.682577468966,104.089073646972,105.495146333395,106.900792294141,108.306008256507,109.710790925354,111.115136990459,112.519043138795,113.922506061649,115.325522466204,116.728089081161,118.130202666303,119.531860018566,120.933057978125,122.333793436845,123.734063341306,125.133864699692,126.533194586299,127.932050145653,129.330428597625,130.728327239987,132.12574345295,133.522674702133,134.919118540923,136.315072613917,137.710534658502,139.105502508958,140.49997409469,141.893947445994,143.287420693117,144.680392068812,146.072859908277,147.464822652091,148.856278844678,150.247227137448,151.63766628684,153.027595157586,154.417012720353,155.805918054033,157.194310344618,158.582188885169,159.969553077135,161.356402428112,162.742736553425,164.128555174807,165.513858119416,166.898645321561,168.282916819852,169.666672757121,171.049913381528,172.432639043021,173.814850195068,175.196547392405,176.577731290668,177.958402646028
-88.2131649639319,-85.5003697605765,-82.8683078195796,-80.3117899260295,-77.8259790801835,-75.4063647114959,-73.0487389512871,-70.7491747840918,-68.5040059157412,-66.3098082104163,-64.1633825650569,-62.0617390981692,-60.0020825447227,-57.9817987550696,-55.9984422106873,-54.0497244686105,-52.1335034641141,-50.2477735987695,-48.3906565549701,-46.5603927747923,-44.7553335547593,-42.9739337073191,-41.2147447429517,-39.4764085357586,-37.7576514343742,-36.0572787834789,-34.3741698257085,-32.707272956055,-31.0556013015704,-29.418228601489,-27.7942853682262,-26.182955306568,-24.5834719723891,-22.9951156552029,-21.4172104665559,-19.849121621107,-18.2902528955503,-16.7400442541577,-15.1979696272084,-13.6635348347101,-12.1362756421398,-10.6157559415787,-9.10156604768599,-7.59332110303728,-6.09065958261516,-4.59324189308194,-3.10074905954093,-1.61288149410234,-0.129357839724378,1.35008611247872,2.82569844176254,4.29771205178974,5.7663455680659,7.23180418030228,8.69428043392145,10.153954973202,11.6109972405105,13.0655661345516,14.5178106265221,15.9678703430019,17.4158761118027,18.8619504774941,20.3062081847362,21.7487566346833,23.1896963143054,24.6291212000891,26.0671191390919,27.5037722074849,28.9391570481559,30.3733451895085,31.8064033448676,33.2383936960907,34.6693741590681,36.0993986358948,37.5285172518923,38.9567765789542,40.3842198454242,41.8108871367634,43.2368155815219,44.6620395294031,46.0865907171619,47.5104984270869,48.9337896355872,50.3564891529763,51.7786197559493,53.2002023134423,54.6212559033995,56.041797925184,57.4618442039393,58.8814090898916,60.3005055528789,61.7191452694802,63.1373387073806,64.5550952040292,65.9724230403736,67.3893295123394,68.8058209955676,70.2219030092647,71.6375802742434,73.0528567695864,74.467735784024,75.8822199673113,77.2963113742223,78.7100115119968,80.1233213794795,81.5362415074825,82.9487719960246,84.3609125483553,85.7726625048133,87.1840208728462,88.5949863570879,90.005557386444,91.4157321407528,92.8255085742619,94.2348844381746,95.6438573049087,97.052424584485,98.4605835476902,99.8683313406506,101.275665004505,102.68258148911,104.089077668745,105.495150357158,106.900796318615,108.306012282185,109.710794951947,111.115141017373,112.5190471655,113.9225100882,115.325526491945,116.728093105883,118.130206689515,119.531864039276,120.933061996898,122.333797452744,123.734067354067,125.133868708879,126.533198591445,127.932054146644,129.330432593454,130.728331230743,132.125747438224,133.522678681105,134.919122513578,136.315076579752,137.710538617273,139.105506459564,140.49997803708,141.893951379958,143.287424618233,144.680395984353,146.072863814219,147.464826547722,148.856282730005,150.247231011471,151.637670149596,153.027599008431,154.417016559154,155.805921879965,157.194314157556,158.582192684937,159.96955686292,161.356406199884,162.7427403104,164.128558916711,165.513861846303,166.898649032671,168.282920514932,169.666676436416,171.049917043648,172.432642688536,173.814853822621,175.196551002396,176.577734882416,177.958406219512
-88.2175240416987,-85.504476474212,-82.8721778013892,-80.3154377789289,-77.829418451152,-75.4096083599835,-73.051798812244,-70.7520620256986,-68.506730992636,-66.3123809134502,-64.1658120668429,-62.0640339952042,-60.0042508964131,-57.9838481199677,-56.0003796804157,-54.0515566979583,-52.1352367004713,-50.2494137091572,-48.3922090502631,-46.5618628326937,-44.7567260422028,-42.9752531991115,-41.2159955412271,-39.4775946870628,-37.7587767456238,-36.0583468367885,-34.3751839927951,-32.708236411113,-31.0565170332595,-29.4190994240954,-27.7951139331057,-26.1837441110266,-24.5842233699729,-22.9958318635086,-21.4178935758825,-19.8497736014764,-18.2908756046287,-16.7406394425427,-15.1985389463005,-13.6640798415447,-12.1367978052679,-10.6162566457947,-9.10204659952927,-7.59378273444639,-6.09110345566569,-4.59366910414087,-3.10116064275672,-1.61327842463913,-0.129741038016334,1.34971577893867,2.82534015416695,4.29736503822329,5.76600910038036,7.23147757213616,8.69396303768622,10.1536461786121,11.6106964724676,13.0652728504136,14.5175243154431,15.9675905233968,17.4156023303522,18.8616823068869,20.3059452227818,21.7484985028599,23.1894426562089,24.6288716808253,26.0668734433234,27.5035300390577,28.9389181288104,30.3731092577303,31.8061701553667,33.2381630182227,34.6691457772245,36.0991723478722,37.5282928676783,38.9565539212472,40.3839987484762,41.8106674457113,43.2365971514681,44.6618222250104,46.0863744131311,47.5102830061373,48.9335749890787,50.3562751796051,51.778406362467,53.1999894132014,54.6210434163713,56.0415857775368,57.4616323276513,58.8811974231165,60.3002940383565,61.7189338552366,63.1371273462572,64.5548838530138,65.9722116612149,67.3891180701959,68.8056094597407,70.2216913521999,71.6373684723683,73.052644801872,74.4675236324368,75.8820076169243,77.2960988131862,78.7097987296456,80.1231083686692,81.536028263118,82.9485585148101,84.3606988289486,85.7724485476696,87.1838066799193,88.594771932765,90.0053427359175,91.4155172712383,92.8252934932213,94.2346691555635,95.6436418310247,97.0522089311282,98.4603677271377,99.8681153670198,101.275448891887,102.682365252583,104.088861325093,105.494933922568,106.900579810877,108.305795719117,109.710578351771,111.114924399386,112.518830549223,113.922293493478,115.325309939001,116.727876615299,118.129990281975,119.531647736566,120.93284582016,122.333581423658,123.733851494418,125.133653040983,126.532983137075,127.931838928078,129.330217633597,130.728116551468,132.125533061894,133.522464630471,134.918908810903,136.314863247663,137.710325678438,139.105293936279,140.499765952001,141.893739755108,143.287213476113,144.680185346914,146.072653703791,147.464616986151,148.856073739263,150.247022613321,151.637462365549,153.027391860039,154.416810067669,155.805716067067,157.194109043889,158.581988291469,159.969353210455,161.356203308852,162.742538201395,164.128357609605,165.513661361222,166.898449389587,168.282721733127,169.666478534976,171.049720043009,172.432446606805,173.814658679537,175.196356815428,176.577541670679,177.958214001095
-88.2263257484499,-85.5127686121376,-82.8799919352227,-80.3228033944623,-77.8363631044593,-75.4161578150835,-73.0579771677995,-70.7578918319225,-68.5122333597271,-66.3175756109064,-64.1707176156717,-62.0686677533466,-60.0086291372172,-57.9879861059284,-56.004291729531,-54.0552562482431,-52.1387363666182,-50.2527253371998,-48.3953437673742,-46.5648310942219,-44.7595376744486,-42.9779174398735,-41.2185210770238,-39.4799896885929,-37.7610488993927,-36.0605033759497,-34.3772317253826,-32.7101817459582,-31.058366004662,-29.4208577156519,-27.7967868976608,-26.1853367917209,-24.5857405179881,-22.9972779569606,-21.419272834949,-19.8510900042689,-18.2921329010623,-16.7418411692263,-15.1996884368987,-13.6651802401424,-12.1378520767863,-10.6172675866483,-9.10301684715728,-7.59471477678949,-6.09199963938414,-4.59453164256416,-3.10199162400619,-1.61407981818195,-0.130514701531183,1.34896809289808,2.82461679295437,4.29666444265212,5.76532980077752,7.23081818200922,8.6933222499394,10.1530227607003,11.610089262769,13.0646807541245,14.5169463005583,15.9670256176409,17.4150496178442,18.8611409252471,20.3054143600291,21.747977394453,23.1889305827893,24.6283679657071,26.0663774503444,27.5030411698577,28.9384358213381,30.3726329843223,31.8056994200478,33.2376973564919,34.668684752511,36.0987155514637,37.5278399175327,38.9561044585838,40.3835524384983,41.8102239750327,43.2361562279822,44.6613835765195,46.0859377852089,47.5098481626029,48.9331417100482,50.3558432615187,51.7779756159191,53.199559663352,54.6206145017343,56.0411575490728,57.4612046484957,58.880770167252,60.299867090821,61.7185071111681,63.1367007101995,64.5544572384674,65.971784990243,67.3886912729728,68.8051824737199,70.2212641225809,71.6369409504547,73.0522169454795,74.4670954066692,75.8815789900303,77.2956697602992,78.7093692314643,80.122678410072,81.5355978329025,82.948127606414,84.3602674397045,85.7720166786053,87.1833743361786,88.594339121681,90.0049094686458,91.4150835609612,92.8248593568865,94.2342346120007,95.6432069013576,97.0517736389077,98.4599320983188,99.8676794286129,101.275012673279,102.681928784973,104.088424640023,105.494497054522,106.900142794636,108.305358590691,109.710141148614,111.114487160326,112.518393313358,113.921856300725,115.324872830741,116.72743963277,118.129553468117,119.531211133411,120.932409471523,122.333145373042,123.733415785729,125.133217718823,126.532548245696,127.931404512883,129.329783739349,130.727683223628,132.125100345938,133.522032571692,134.918477454945,136.31443263968,137.709895863857,139.104864960315,140.499337860054,141.893312592218,143.286787286963,144.679760176868,146.072229597283,147.464193987592,148.85565189247,150.246601962764,151.637042954591,153.026973732395,154.416393266176,155.805300634256,157.19369502243,158.581575723744,159.968942138294,161.355793773896,162.742130244383,164.127951271271,165.513256682017,166.898046409426,168.28232049196,169.666079072049,171.049322396754,172.432050815561,173.814264781349,175.195964848971,176.577151671818,177.957826006848
-88.2395751872829,-85.5252509745474,-82.8917547380815,-80.3338910243196,-77.8468170430439,-75.4260168462274,-73.0672775683616,-70.7666675481962,-68.5205161695026,-66.3253952741211,-64.1781020126957,-62.0756430134868,-60.015219757775,-57.9942150614698,-56.010180574264,-54.060825209952,-52.144004434749,-50.2577103436514,-48.4000624624206,-46.5692992164439,-44.7637700155437,-42.9819279055851,-41.2223227436713,-39.4835948551044,-37.7644691366252,-36.0637495721265,-34.3803141285568,-32.7131100035796,-31.0611492007949,-29.4235044048374,-27.7993051377159,-26.1877341741394,-24.5880241954396,-22.9994546699586,-21.4213489361746,-19.8530714821139,-18.2940254012046,-16.7436500135759,-15.2014186446357,-13.6668365438326,-12.1394389397165,-10.6187892184055,-9.10447721803115,-7.59611763153629,-6.09334851062761,-4.59582986232806,-3.10324233521288,-1.61528598566866,-0.131679121991397,1.34784278159464,2.82352810273954,4.2956100271345,5.76430744684978,7.22982580271128,8.69235787755963,10.1520845403094,11.6091754451974,13.0637896911106,14.516076438894,15.9661754937731,17.4142178533215,18.8603262213104,20.3046154943307,21.7471932161898,23.1881600092306,24.6276099780019,26.0656310905603,27.5023055375762,28.9377100704563,30.3719163197262,31.8049910960758,33.2369966728081,34.6679910529044,36.0980282208611,37.5271583791863,38.9554281734816,40.3828809021801,41.809556716322,43.2354928069161,44.6607235824122,46.0852808357466,47.5091939020409,48.9324898075812,50.3551934096483,51.7773275306244,53.1989130807069,54.619969178798,56.0405132615059,57.4605611899657,58.8801273483788,60.299224738332,61.7178650670048,63.1360588302942,64.5538153931035,65.9711430616916,67.3880491558467,68.8045400746287,70.2206213580166,71.6362977475393,73.0515732410666,74.4664511460088,75.8809341281332,77.2950242592248,78.7087230608079,80.122031547042,81.5349502610702,82.9474793160821,84.3596184266744,85.7713669444306,87.1827238874207,88.5936879702024,90.0042576311233,91.4144310579527,92.824206212795,94.2335808554751,95.6425525643753,97.0511187568218,98.4592767093025,99.8670235741967,101.27435639701,102.681272133394,104.087767661992,105.493839800532,106.899485317488,108.304700945455,109.709483391318,111.113829348225,112.517735505932,113.921198558718,115.324215215075,116.726782206642,118.128896294717,119.530554277626,120.931752997224,122.332489346695,123.73276027374,125.132562787811,126.531893963736,127.930750946542,129.329130956855,130.727031293115,132.124449335117,133.521382549576,134.917828489261,136.313784799023,137.709249216574,139.104219574769,140.498693803897,141.892669933659,143.286146093538,144.679120516015,146.071591536092,147.463557592775,148.855017230769,150.245969099958,151.636411956558,153.026344663975,154.415766193094,155.804675620574,157.193072132045,158.580955019865,159.96832368388,161.355177631148,162.741516475523,164.127339937716,165.512647844537,166.897440128204,168.281716826232,169.665478081279,171.04872413895,172.431455348398,173.813672162524,175.195375134369,176.576564918881,177.957242269812
-88.2572800425584,-85.5419307904504,-82.9074730118692,-80.3487070706529,-77.8607862942867,-75.439191129534,-73.0797053606556,-70.7783942117115,-68.5315841689574,-66.335844377245,-64.1879694757729,-62.0849637529543,-60.024026508341,-58.002538523948,-56.0180495509133,-54.0682667306011,-52.1510438745355,-50.264371531185,-48.4063677800248,-46.5752696949049,-44.7694254205601,-42.9872868190352,-41.2274026387686,-39.4884121666155,-37.7690393261085,-36.0680871890644,-34.3844328666773,-32.7170227545315,-31.064868103182,-29.4270408896226,-27.8026699726591,-26.1909375028109,-24.5910755758739,-23.0023631089006,-21.4241229227546,-19.8557190182628,-18.2965540304208,-16.746066848011,-15.2037303909129,-13.6690495259711,-12.1415591219227,-10.6208222254479,-9.10642835539858,-7.59799190339982,-6.09515063712354,-4.59756429628413,-3.10491327632889,-1.61689739609739,-0.133234738384317,1.34633943419482,2.82207369948196,4.29420143250519,5.76294170351633,7.22850012192669,8.69106963003918,10.1508312467103,11.6079547687967,13.062599429125,14.5149145157002,15.9650399534012,17.4131068534999,18.859238027077,20.3035484716153,21.746145827494,23.1871308074513,24.6265976015101,26.064634259373,27.5013230481706,28.9367407920209,30.3709591902452,31.8040451185261,33.2360609116022,34.6670646305645,36.0971103150462,37.5262482201429,38.9545250401276,40.3819841206126,41.8086656562415,43.2346068802687,44.6598422407798,46.0844035682601,47.5083202327173,48.9316192940216,50.3543256418771,51.7764621278682,53.1980496910174,54.6191074768504,56.0396529473507,57.4597019877033,58.8792690051741,60.2983670223368,61.7170077666982,63.1352017537335,64.5529583658792,65.9702859269988,67.3871917728865,68.8036823175123,70.2197631156925,71.6354389225849,73.0507137487745,74.4655909132948,75.8800730941018,77.2941623733367,78.7078602829486,80.1211678458352,81.5340856148287,82.9466137114021,84.3587518580645,85.7704994141602,87.1818554043546,88.5928185497637,90.0033872947273,91.4135598332662,92.823334132988,94.2327079580072,95.641678892332,97.0502443570558,98.4584016330402,99.8661478764238,101.273480136399,102.680395371513,104.086890464224,105.492962234251,106.898607453541,108.303822856327,109.708605151851,111.112951036105,112.516857199555,113.92032033874,115.323337163922,116.725904407708,118.12801883266,119.529677238122,120.93087646797,122.331613415161,123.731885028527,125.131688317792,126.531020358798,127.9298782973,129.328259353505,130.726160826573,132.123580096769,133.520514630007,134.91696198021,136.312919791469,137.708385801763,139.103357844025,140.497833847845,141.891811842847,143.28528995845,144.678266426499,146.070739581856,147.462707863201,148.854169814205,150.245124084907,151.635569430972,153.025504715218,154.414928906959,155.803841083429,157.192240429426,158.580126236441,159.967497903482,161.354354937347,162.740696950761,164.126523664056,165.511834903055,166.896630598853,168.280910788989,169.664675614769,171.047925321234,172.430660257436,173.812880873836,175.19458772377,176.575781460681,177.956462838244
-88.2794505876614,-85.5628177237513,-82.9271558502206,-80.367260092639,-77.8782789165307,-75.4556882536831,-73.0952676927295,-70.7930785570655,-68.5454437041924,-66.3489289016943,-64.2003256437412,-62.0966352880526,-60.0350544028545,-58.0129612221014,-56.0279031199848,-54.0775850184833,-52.1598586565668,-50.2727126455496,-48.414263255295,-46.5827458659041,-44.7765070383126,-42.9939971519829,-41.2337635672317,-39.4944442700862,-37.7747619660261,-36.0735185843495,-34.3895901650558,-32.7219220986899,-31.0695246927359,-29.4314690394084,-27.8068831655259,-26.1949484410109,-24.5948962278775,-23.0060047529057,-21.4275961887428,-19.8590339264705,-18.2997200270925,-16.7490928392264,-15.2066247743666,-13.6718202206368,-12.1442135961685,-10.6233675231136,-9.10887111975194,-7.60033840099641,-6.0974067787289,-4.59973565727711,-3.10700511637071,-1.61891467585696,-0.135182137956633,1.34445750100843,2.82025306946213,4.29243817871503,5.76123212274535,7.22684072215691,8.68945711826632,10.1492625185625,11.606426897977,13.0611096570572,14.5134602430005,15.9636187308568,17.4117163738327,18.8578761174803,20.3022130861599,21.7448350401607,23.1858428058824,24.6253306812033,26.0633868168303,27.5000935760584,28.9355278742677,30.3697614967115,31.802861400245,33.2348899969563,34.6659054208673,36.0959617801773,37.5251093955413,38.9533950231666,40.380862066694,41.8075507766874,43.2334984383329,44.6587395492996,46.0833059866374,47.5072271651601,48.9305301871137,50.3532399808391,51.7753794361746,53.1969695277601,54.6180294342012,56.0385766498265,57.4586270895405,58.8781951892086,60.297293998319,61.7159352697633,63.1341295428626,64.5518862224338,65.969213654569,67.3861191947071,68.8026092761694,70.2186894719197,71.6343645538738,73.0496385486947,74.4645147912223,75.8789959724953,77.2930841888409,78.7067809847606,80.1200873952377,81.5330039843212,82.945530884084,84.357667826673,85.7694141807866,87.1807689804039,88.5917309543567,90.0022985548067,91.4124699829379,92.8222432129815,94.2316160166576,95.6405859820491,97.0491505369331,98.4573069668559,99.8650524330112,101.27238398855,102.679298597012,104.085793143935,105.491864452978,106.897509299224,108.302724419908,109.707506527382,111.111852320005,112.515758490423,113.919221736901,115.322238772587,116.724806331336,118.126921177243,119.528580110952,120.929779978095,122.330517672159,123.730790142972,125.130594401445,126.529927523936,127.928786656593,129.327169020327,130.725071914547,132.122492719765,133.5194289023,134.915878015842,136.311837705078,137.707305706706,139.102279854175,140.496758077209,141.890738404684,143.284218965946,144.67719799209,146.069673817478,147.461644880501,148.853109724465,150.244066998503,151.634515457613,153.024453963769,154.413881486365,155.802797100789,157.191199991629,158.579089449345,159.966464872559,161.353325766477,162.739671743879,164.125502523011,165.510817929358,166.895617893228,168.279902451129,169.663671743041,171.046926013385,172.429665609853,173.811890982461,175.193602682991,176.574801363899,177.955487778508
-88.3060996950692,-85.5879238834493,-82.9508146473605,-80.3895608147451,-77.8993050066742,-75.4755177269063,-73.113973520791,-70.8107290222833,-68.5621027269662,-66.3646563424911,-64.2151775819714,-62.1106642809041,-60.0483097233184,-58.0254890812544,-56.039746870763,-54.0887853464508,-52.1704537553703,-50.2827383814883,-48.4237533179096,-46.5917319098216,-44.7850188141489,-43.0020626281534,-41.2414090431823,-39.5016944826834,-37.7816401871207,-36.0800467127517,-34.3957888119415,-32.7278106675657,-31.0751214528511,-29.436791196666,-27.811946926591,-26.1997690732916,-24.5994881171968,-23.01038145551,-21.431770482175,-19.8630178541728,-18.303524942958,-16.7527294487493,-15.2101031710932,-13.6751499237304,-12.1474035821623,-10.6264262582861,-9.1118065895692,-7.60315813767085,-6.10011788686791,-4.60234483888951,-3.10951869309139,-1.62133861103581,-0.137522056349212,1.34219629347285,2.81806556827996,4.2903196638851,5.75917814291006,7.22484707969852,8.68751985509851,10.1473779029178,11.6045914118801,13.0593199849066,14.5117132598198,15.9619114928032,17.410046107328,18.8562402104003,20.3006090790693,21.7432606178458,23.1842957898845,24.6238090217147,26.0618885864886,27.4986169632292,28.9340711761466,30.3683231141461,31.8014398319207,33.2334838341563,34.6645133426246,36.094582548127,37.5237418501828,38.9520380785744,40.3795147080002,41.8062120551002,43.232167467776,44.6574155036515,46.0819880962317,47.5059147132714,48.929222507435,50.3519364552532,51.7740794910175,53.1956726328926,54.6167350991849,56.0372844227937,57.4573365548411,58.8769059650105,60.2960057355078,61.7146476493394,63.1328422749213,64.5505990447562,65.9679263299013,67.384831510526,68.8013210429192,70.2174005217357,71.6330747392788,73.0483477418363,74.4632228814936,75.877702867433,77.2917898123284,78.7054852751857,80.1187903058424,81.531705481393,82.9442309468933,84.356366446826,85.7681113605,87.1794647322475,88.5904253013627,90.000991529678,91.4111616265099,92.8209335741795,94.2303051514918,95.6392739544568,97.0478374174202,98.4559928322439,99.8637373650129,101.271068075792,102.67798193137,104.084475822978,105.490546578638,106.896190976394,108.301405758022,109.706187639176,111.110533320467,112.514439498463,113.917902873747,115.320920160861,116.723488096596,118.12560344693,119.527263014231,120.928463644644,122.329202234076,123.729475733499,125.129281154257,126.528615573734,127.927476138819,129.325860070797,130.723764670055,132.12118731683,133.518125477873,134.914576707011,136.310538648269,137.706009039847,139.100985713541,140.495466599195,141.889449725416,143.282933221219,144.675915316853,146.068394346665,147.460368747816,148.851837063475,150.242797941364,151.633250136584,153.023192509433,154.41262402879,155.801543769585,157.189950914692,158.577844754311,159.965224685107,161.352090211915,162.738440946419,164.124276605566,165.509597013819,166.89440210042,168.278691900708,169.662466553528,171.045726301806,172.428471491996,173.810702573143,175.192420095958,176.573624711307,177.954317170892
-88.3372428494212,-85.6172638357982,-82.9784631092604,-80.415622137517,-77.92387671008,-75.4986909869156,-73.1358336182505,-70.8313557575096,-68.5815708022848,-66.3830357146685,-64.2325337893756,-62.1270587445987,-60.0638000268114,-58.0401292286163,-56.0535875262298,-54.1018740568993,-52.1828351556163,-50.2944543856187,-48.4348432965548,-46.6022328554091,-44.7949654939131,-43.0114877265348,-41.2503432945052,-39.5101667945036,-37.7896777550592,-36.0876751281859,-34.4030321614318,-32.7346916259883,-31.0816613702061,-29.4430101799737,-27.8178639137521,-26.2054019072399,-24.6048536082548,-23.0154954470099,-21.4366479046944,-19.8676727825452,-18.3079706457546,-16.7569784356008,-15.2141672381208,-13.679040194169,-12.1511305467769,-10.629999811047,-9.11523606250205,-7.60645233275847,-6.10328510714271,-4.60539291610814,-3.11245501516828,-1.6241701468162,-0.140255379545863,1.3395549823108,2.81551042034835,4.2878451636995,5.75677908797815,7.22251856429659,8.68525725335968,10.1451768537545,11.6024478038702,13.0572299428154,14.5096731318173,15.9599178380314,17.4080956841607,18.8543299660443,20.2987361389891,21.7414222761881,23.18248950008,24.6220323883163,26.0601393567148,27.4968930192247,28.9323705278302,30.3666438923737,31.7997802818374,33.2318423088389,34.6628882977894,36.0929725365691,37.5221455158967,38.9504541526362,40.3779420036958,41.8046494631666,43.2306139529595,44.6558700995575,46.0804499025845,47.5043828923801,48.9276962801712,50.350415098601,51.7725623347113,53.1941590560461,54.6152245291424,56.0357763306498,57.455830454319,58.8754014097747,60.2945023167447,61.7131449941961,63.1313400440806,64.5490969306602,65.9664240552758,67.3833288269119,68.7998177281021,70.2158963792385,71.6315695960544,73.0468414478795,74.4617153082487,75.8761939062613,77.2902793725561,78.7039732851499,80.117276710086,81.5301902410171,82.9427140368462,84.3548478562121,85.7665910921937,87.1779428011018,88.5889017336395,89.9994663621945,91.4096349066275,92.8194053595345,94.2287755073957,95.6377429549136,97.0463051446571,98.4544593749933,99.8622028194285,101.269532543486,102.676445521084,104.08293864748,105.489008756858,106.894652631091,108.29986701665,109.704648632301,111.108994183544,112.512900368852,113.916363893015,115.319381472808,116.721949847104,118.124065784086,119.525726089379,120.926927609237,122.327667242017,123.727941939646,125.12774871522,126.527084646106,127.925946881084,129.324332641694,130.722239228196,132.119664022423,133.51660449025,134.913058185918,136.309022753987,137.70449593169,139.099475551396,140.493959542609,141.887945932586,143.281432850467,144.674418526608,146.06690129325,147.458879588116,148.850351952601,150.241317034504,151.631773587112,153.021720470794,154.411156652319,155.800081206318,157.188493313891,158.576392264628,159.963777454038,161.350648385648,162.737004669232,164.122846021576,165.508172265181,166.892983328325,168.277279243963,169.661060150711,171.04432628959,172.427078006184,173.809315747623,175.191040062979,176.572251602537,177.952951115238
-88.372898162484,-85.6508546182275,-83.01011726775,-80.4454591502968,-77.952008233073,-75.5252214115957,-73.1608605862932,-70.8549706351209,-68.6038591176726,-66.4040775632324,-64.2524042066506,-62.1458280521715,-60.0815341521148,-58.0568900006354,-56.0694329504633,-54.1168585686759,-52.1970098566682,-50.3078672623818,-48.4475394238821,-46.6142545848222,-44.8063526290284,-43.0222776867103,-41.2605712660929,-39.5198658725374,-37.7988790751857,-36.0964079883906,-34.4113241373429,-32.7425686765837,-31.0891479384061,-29.450129284973,-27.8246372381501,-26.2118498764406,-24.6109954691809,-23.0213493361045,-21.4422309161556,-19.87300102995,-18.3130593193816,-16.761841857462,-15.2188189126296,-13.6834928566108,-12.1553962070047,-10.6340897963869,-9.11916105668632,-7.61022241328874,-6.10690977960621,-4.60888114703613,-3.1158152627637,-1.62741039001332,-0.143383144274537,1.33653259696109,2.81258671892908,4.28501383010257,5.75403416638335,7.21985443793363,8.68266862615383,10.1426587320918,11.5999954805078,13.0548389810539,14.5073393501427,15.957637296402,17.4058646712246,18.8521449862926,20.296593900877,21.7393196813389,23.1804236327239,24.6200005054454,26.0581388786125,27.494921520744,28.9304257300043,30.3647236546762,31.7978825944342,33.2299652861729,34.6610301710035,36.0911316482977,37.5203203131849,38.9486431823177,40.3761439060971,41.8028629681248,43.2288378740066,44.6541033301943,46.0786914114459,47.5026317198977,48.9259515339327,50.3486759501191,51.7708280157572,53.1924288558261,54.6134977905882,56.0340524481462,57.4541088704206,58.8736816127863,60.2927838380857,61.7114274064112,63.1296229583478,64.5473799943659,65.9647069505966,67.3816112681528,68.7980994603979,70.2141771769871,71.6298492613765,73.0451198077507,74.4599922147002,75.8744692342709,77.2885530188605,78.7022451669834,80.1155467630557,81.5284584196357,82.9409803122212,84.3531122161642,85.7648535382126,87.1762033500095,88.5871604152429,89.9977232185433,91.4078899915803,92.8176587368197,94.2270272527051,95.6359931528306,97.0445538879819,98.4527067650884,99.860448966262,101.26777756349,102.674689536973,104.081181789134,105.487251158579,106.892894433981,108.298108365437,109.702889677395,111.107235077938,112.511141270768,113.914604963214,115.317622875553,116.720191749294,118.122308356,119.523969501572,120.925172036667,122.325912859706,123.72618892473,125.125997246224,126.525334903019,127.924199043594,129.322586891477,130.720495747403,132.117922993183,133.514866095094,134.911322607787,136.30729017551,137.70276653515,139.097749519486,140.492237057026,141.886227175189,143.279718001941,144.672707766983,146.065194802817,147.457177545254,148.848654535217,150.239624419348,151.630085949989,153.020037986335,154.409479494062,155.798409546635,157.186827324233,158.574732114202,159.962123311651,161.34900041814,162.735363042313,164.121210899358,165.506543810186,166.8913617015,168.275664605201,169.65945265779,171.042726099589,172.425485272665,173.807730624825,175.189462701449,176.570682152642,177.951389725526
