192.334938339757,193.713376430752,195.091306702488,196.468730634311,197.845649795032,199.222065843596,200.59798052538,201.973395673269,203.348313206357,204.722735127549,206.096663524125,207.470100565277,208.843048503122,210.215509668702,211.587486473867,212.958981407615,214.329997036875,215.700536004091,217.070601027689,218.440194898803,219.809320483237,221.17798071685,222.546178606821,223.913917230509,225.28119973318,226.648029328056,228.014409294293,229.380342976752,230.745833784819,232.110885190096,233.475500727408,234.839683992884,236.203438642054,237.566768390024,238.929677009768,240.292168331458,241.654246241997,243.01591468184,244.377177647091,245.738039186812,247.098503401145,248.458574443072,249.818256513722,251.177553866228,252.536470800649,253.895011663798,255.253180850109,256.610982800099,257.968421998185,259.325502972733,260.682230295844,262.038608580922,263.39464248284,264.750336697861,266.10569596018,267.460725044243,268.815428762374,270.169811962552,271.523879530549,272.877636387375,274.231087488411,275.584237822479,276.937092413368,278.289656315464,279.641934617148,280.993932433865,282.345654914761,283.697107237159,285.048294607509,286.399222259275,287.749895453455,289.100319478974,290.450499649116,291.800441303399,293.150149805352,294.499630541819,295.848888923602,297.197930384377,298.546760379193,299.895384383483,301.243807894732,302.592036429142,303.94007552352,305.287930731436,306.635607626358,307.983111798568,309.33044885384,310.677624417068,312.024644125551,313.371513633713,314.718238609667,316.064824735291,317.411277706033,318.757603229288,320.103807026127,321.449894826609,322.795872373678,324.141745421102,325.487519730036,326.833201073054,328.178795230319,329.524307990744,330.869745150261,332.215112512302,333.560415886233,334.905661087967,336.250853938263,337.596000263105,338.941105892464,340.286176660187,341.631218403328,342.976236961572,344.321238176891,345.666227892654,347.011211953331,348.356196203991,349.701186489617,351.046188654613,352.391208542466,353.736251994763,355.081324851118,356.426432948429,357.771582120275,359.116778196429,360.462027002493,361.807334359119,363.152706081481,364.498147978879,365.843665853925,367.189265502549,368.534952712738,369.880733264553,371.226612929047,372.572597467951,373.918692634331,375.264904168481,376.611237802861,377.957699255482,379.304294233269,380.651028431231,381.997907530378,383.34493719765,384.692123086305,386.039470834522,387.38698606309,388.734674378301,390.082541370281,391.430592608718,392.778833649056,394.12727002464,395.475907251619,396.824750825523,398.173806220586,399.523078891237,400.872574267858,402.222297761103,403.57225475644,404.922450615364,406.272890675167,407.623580248916,408.97452462251,410.32572905581,411.677198780858,413.028939002039,414.38095489423,415.733251604004,417.085834246813,418.438707908144,419.791877640146,421.145348463795,422.499125366604,423.853213301305,425.207617187124,426.562341906457,427.917392307088
192.332435478745,193.710888005943,195.088832935223,196.466271742547,197.843205995012,199.219637347794,200.595567544112,201.970998414195,203.345931874485,204.72036992455,206.094314650215,207.467768217608,208.840732875542,210.213210952367,211.585204858509,212.956717079637,214.327750179509,215.698306798728,217.068389652713,218.438001530905,219.807145295057,221.175823880071,222.544040289316,223.911797598109,225.27909894954,226.645947554059,228.012346688361,229.37829969439,230.743809979498,232.108881013618,233.473516328375,234.837719516759,236.201494233734,237.564844190531,238.927773159052,240.290284966154,241.652383496302,243.014072689087,244.375356536863,245.736239087408,247.09672443829,248.456816739744,249.816520192251,251.175839045372,252.534777596913,253.893340192583,255.251531224277,256.609355130915,257.96681639338,259.323919539673,260.680669138747,262.037069802659,263.393126184346,264.748842976989,266.104224914978,267.459276768262,268.814003348562,270.168409502188,271.522500112456,272.876280098316,274.229754413528,275.582928046427,276.935806017166,278.288393379488,279.640695217951,280.992716648842,282.344462818503,283.695938902046,285.047150104379,286.398101657262,287.748798820607,289.099246879999,290.449451149404,291.799416964767,293.149149688514,294.498654706749,295.84793742722,297.197003283098,298.545857727196,299.894506232925,301.242954297596,302.591207434148,303.939271178785,305.28715108449,306.634852720964,307.982381677308,309.32974355971,310.676943989331,312.023988604114,313.370883055158,314.717633009983,316.064244148519,317.410722164838,318.757072765511,320.103301668822,321.449414604863,322.795417314623,324.141315549297,325.487115069795,326.832821646808,328.178441059471,329.523979094879,330.869441547691,332.214834219672,333.560162919241,334.905433460356,336.250651662802,337.595823350897,338.940954353255,340.286050502362,341.631117633894,342.976161586093,344.321188199455,345.666203316038,347.011212778909,348.356222431716,349.701238117996,351.046265680913,352.391310962289,353.736379802572,355.081478039806,356.426611509593,357.771786043943,359.117007471533,360.462281616233,361.807614297326,363.153011328709,364.498478518163,365.844021666971,367.189646569594,368.535359012486,369.881164774118,371.227069624359,372.573079324203,373.919199624015,375.265436263648,376.611794972713,377.95828146857,379.304901457562,380.651660632002,381.998564671553,383.345619243122,384.692829995162,386.040202567612,387.38774257895,388.735455632259,390.083347318596,391.431423204223,392.779688843734,394.128149769225,395.476811494651,396.825679513885,398.174759300495,399.524056305675,400.873575960355,402.223323672063,403.573304823416,404.92352477809,406.273988868469,407.624702406639,408.975670676711,410.326898937979,411.678392419321,413.030156323679,414.38219582551,415.734516067634,417.087122165604,418.440019200979,419.793212225812,421.146706258848,422.500506285223,423.854617256871,425.209044089875,426.563791666008,427.918864829153
192.329741645892,193.708209705708,195.086170405133,196.463625217702,197.840575707077,199.217023526874,200.592970416203,201.968418203144,203.343368801031,204.717824207107,206.091786501816,207.465257851888,208.838240501106,210.210736776426,211.582749083649,212.954279906552,214.325331806672,215.695907421275,217.066009463432,218.435640718384,219.804804046396,221.173502379058,222.541738718375,223.909516135186,225.276837770532,226.643706832291,228.010126594063,229.376100396368,230.741631642364,232.106723800406,233.471380398978,234.835605029691,236.199401343317,237.562773049404,238.925723916974,240.288257771147,241.650378493511,243.012090020841,244.373396344009,245.734301506784,247.094809606047,248.454924788592,249.81465125348,251.173993246916,252.532955064898,253.891541051021,255.249755595109,256.607603132201,257.96508814353,259.32221515338,260.678988728052,262.035413478206,263.391494054693,264.747235148847,266.102641491876,267.457717852685,268.812469040096,270.166899899135,271.521015310497,272.87482019227,274.228319494649,275.581518203983,276.934421339516,278.287033953156,279.639361126439,280.991407974281,282.343179641253,283.694681299827,285.045918153961,286.396895433679,287.747618396266,289.098092326896,290.448322535218,291.79831435786,293.148073153625,294.49760430753,295.846913226298,297.196005340352,298.544886100586,299.893560980785,301.242035473271,302.590315091854,303.938405370086,305.286311858864,306.634040127771,307.981595763066,309.328984369259,310.676211565141,312.023282989293,313.370204289093,314.71698113103,316.063619194089,317.410124170064,318.756501763909,320.10275769235,321.448897684106,322.794927478858,324.140852825809,325.486679484691,326.83241322437,328.178059822209,329.523625064001,330.869114742971,332.2145346593,333.559890619604,334.905188436879,336.250433928812,337.59563291847,338.940791232985,340.285914703149,341.631009163317,342.976080450125,344.321134402581,345.666176861198,347.011213667581,348.356250663839,349.701293692036,351.046348593794,352.39142120946,353.736517377914,355.081642935842,356.42680371694,357.772005552219,359.117254268404,360.462555688185,361.807915629177,363.153339903683,364.498834317955,365.84440467195,367.19005675835,368.535796362403,369.881629260716,371.227561222064,372.573598004283,373.919745357828,375.266009020988,376.612394720853,377.958908174583,379.305555085237,380.652341144289,381.999272030731,383.346353407641,384.693590924406,386.040990216863,387.388556903101,388.736296587082,390.084214852398,391.432317269733,392.780609387025,394.129096737784,395.477784833277,396.826679165814,398.175785206097,399.525108406058,400.874654192529,402.224427972347,403.574435126038,404.92468101516,406.275170971548,407.625910304758,408.976904297079,410.328158204686,411.679677256505,413.03146665311,414.383531566455,415.735877138265,417.088508481656,418.441430675756,419.794648771911,421.148167785835,422.501992701307,423.856128468188,425.210580000202,426.565352177429,427.920449841569
192.326857058815,193.705341743657,195.083319323757,196.460791268418,197.837759139231,199.214224585875,200.590189344671,201.965655240172,203.340624182682,204.715098167213,206.08907927166,207.462569658007,208.835571567639,210.208087324926,211.58011933186,212.951670069361,214.322742096421,215.693338046972,217.063460630832,218.433112631473,219.802296905164,221.171016380504,222.539274056552,223.907073002319,225.274416354462,226.641307318938,228.007749166193,229.373745234409,230.739298923493,232.104413698249,233.4690930861,234.833340674579,236.197160111888,237.560555106001,238.923529421985,240.286086882323,241.648231366859,243.009966808695,244.371297196863,245.732226572842,247.092759029659,248.452898713209,249.812649817965,251.172016589983,252.531003321411,253.889614354132,255.247854074624,256.605726915915,257.963237357436,259.320389919642,260.677189168434,262.033639711144,263.38974619619,264.745513312512,266.1009457895,267.45604839413,268.81082593212,270.165283246504,271.519425216826,272.873256757066,274.226782816352,275.580008380449,276.93293846405,278.285578117191,279.637932420602,280.990006486993,282.34180545829,283.693334505671,285.044598829916,286.395603659845,287.746354250986,289.096855885565,290.447113871558,291.797133544559,293.146920261521,294.496479404763,295.845816379023,297.194936613191,298.543845556007,299.892548679622,301.241051474656,302.589359453984,303.937478147056,305.285413104163,306.633169893819,307.980754099204,309.32817132491,310.675427186455,312.022527320151,313.369477373356,314.716283009461,316.062949906461,317.409483754446,318.755890256099,320.10217512718,321.44834409398,322.794402894914,324.140357276863,325.486212999379,326.831975828211,328.177651539715,329.523245917916,330.868764754345,332.214213847542,333.559599002868,334.904926030916,336.250200748351,337.595428976368,338.940616540545,340.285769270093,341.630892997588,342.975993558161,344.321076789209,345.666148529585,347.011214619297,348.356280898826,349.701353208635,351.0464373887,352.391539277761,353.736664713126,355.081819529678,356.427009559906,357.772240632754,359.117518573585,360.46284920317,361.808238337848,363.153691788085,364.499215358588,365.844814847586,367.190496046301,368.536264737773,369.882126697348,371.228087692085,372.57415347914,373.920329805685,375.266622408786,376.613037014429,377.959579337368,379.306255079484,380.653069930651,382.000029567418,383.34713965134,384.694405831008,386.041833738662,387.389428992724,388.737197194295,390.085143924752,391.433274752777,392.781595227249,394.130110876538,395.478827211948,396.827749722542,398.1768838791,399.526235130039,400.875808901081,402.225610596406,403.575645597702,404.925919259756,406.27643691555,407.62720387156,408.978225408624,410.329506781929,411.681053216755,413.03286991174,414.384962037493,415.73733473425,417.089993111341,418.442942248212,419.796187191867,421.149732957021,422.503584525028,423.857746843537,425.212224824902,426.567023345652,427.922147245923
192.323781949373,193.702284350553,195.080279918414,196.457770119909,197.834756512192,199.211240742735,200.58722454401,201.962709737812,203.33769823183,204.712192015242,206.086193165095,207.459703838818,208.832726275712,210.20526279509,211.577315798069,212.948887760523,214.319981238685,215.690598864095,217.060743341676,218.430417453233,219.799624051722,221.168366061765,222.536646480481,223.904468372444,225.271834872798,226.638749182556,228.005214571165,229.371234372015,230.736811983124,232.101950866409,233.466654545404,234.830926605543,236.194770692111,237.558190509309,238.921189819823,240.283772444078,241.645942257743,243.007703192628,244.36905923396,245.730014420114,247.090572842753,248.450738643992,249.810516016591,251.169909202469,252.528922492191,253.887560224796,255.24582678391,256.603726601314,257.961264151352,259.318443954825,260.675270573297,262.031748612196,263.38788271723,264.743677574886,266.099137912616,267.454268494544,268.809074124469,270.16355964268,271.517729925889,272.871589887488,274.225144473854,275.578398665953,276.931357479297,278.284025960183,279.636409187842,280.988512272098,282.340340352263,283.691898599019,285.043192209904,286.394226411967,287.74500645783,289.095537628879,290.445825231035,291.795874597068,293.145691081027,294.495280063134,295.844646948775,297.193797163147,298.542736152887,299.891469388795,301.24000235917,302.588340574076,303.9364895622,305.284454871859,306.632242068345,307.979856735242,309.327304472826,310.674590897014,312.021721640469,313.368702349146,314.715538685022,316.062236323713,317.408800953886,318.755238276495,320.101554005129,321.447753864914,322.793843590887,324.139828930403,325.485715639389,326.831509482525,328.177216234487,329.522841677593,330.868391601326,332.213871802567,333.559288084766,334.904646257092,336.249952134344,337.595211535958,338.940430285644,340.285614211162,341.630769143121,342.97590091504,344.321015362539,345.666118322782,347.011215634004,348.356313134985,349.701416664499,351.046532060701,352.391665160734,353.736821800092,355.082007811968,356.427229027013,357.772491272584,359.117800372215,360.463162145048,361.808582405511,363.154066962532,364.499621618823,365.845252170765,367.190964408205,368.536764112895,369.882657057062,371.228649007,372.574745717485,373.920952934271,375.267276392669,376.61372181716,377.960294919539,379.307001400742,380.65384694854,382.000837238084,383.347977929252,384.69527466726,386.042733084907,387.390358796146,388.73815740072,390.086134480276,391.434295600077,392.782646306245,394.131192126614,395.479938569989,396.828891123609,398.178055255351,399.527436412989,400.877040019529,402.226871478084,403.576936165695,404.927239438792,406.277786625263,407.628583031306,408.979633935006,410.33094458909,411.682520216976,413.034366016273,414.386487153668,415.738888768274,417.091575966656,418.444553826294,419.797827392241,421.151401677075,422.505281658799,423.85947228403,425.21397846111,426.568805066898,427.923956936914
192.320516566366,193.699037771022,195.077052430832,196.454562010592,197.831568062847,199.208072231205,200.584076246478,201.959581925647,203.334591171703,204.709105973161,206.083128401811,207.45666061155,208.8297048389,210.202263399608,211.574338691124,212.945933185983,214.317049437154,215.687690071743,217.057857793233,218.427555378901,219.796785678352,221.165551613084,222.533856176349,223.901702430788,225.269093506981,226.636032603278,228.002522985622,229.368567984808,230.734170994721,232.099335474344,233.464064944697,234.82836298756,236.192233244949,237.555679418785,238.918705268573,240.281314611767,241.643511320006,243.005299323019,244.366682602919,245.727665195559,247.088251188629,248.448444722462,249.808249986229,251.167671219624,252.526712710726,253.885378794151,255.243673852802,256.601602314258,257.959168651571,259.316377380902,260.673233062668,262.029740299194,263.385903733537,264.741728050173,266.097217972941,267.45237826441,268.807213725494,270.161729193762,271.515929544047,272.869819686048,274.223404564194,275.576689158433,276.929678480111,278.282377574717,279.634791517621,280.986925417323,282.338784410977,283.690373665333,285.041698377561,286.392763770732,287.743575097218,289.094137634955,290.444456687557,291.79453758475,293.144385681037,294.494006353732,295.843405004104,297.192587056606,298.541557956636,299.89032316998,301.238888185305,302.587258510603,303.935439672444,305.283437215827,306.631256705005,307.978903722008,309.326383863264,310.673702744158,312.02086599496,313.367879259833,314.714748199582,316.061478486304,317.40807580726,318.75454586187,320.100894361572,321.447127029345,322.793249599507,324.139267815821,325.485187432688,326.8310142141,328.176753931419,329.522412365521,330.867995304578,332.213508543184,333.55895788289,334.904349131089,336.249688100682,337.594980609232,338.940232478757,340.285449535003,341.630637606825,342.975802525914,344.320950125993,345.666086242443,347.011216711648,348.356347370558,349.701484056092,351.046632604588,352.391798851371,353.73698863002,355.082207772046,356.427462106121,357.772757457761,359.118099648719,360.463494496304,361.808947812985,363.154465405777,364.500053075701,365.845716617989,367.191461819168,368.537294458989,369.883220310153,371.229245134602,372.575374686501,373.921614709098,375.267970936149,376.614449089862,377.961054880581,379.307794006962,380.65467215612,382.001694998416,383.348868193168,384.696197385259,386.043688203407,387.391346260515,388.739177153678,390.087186463748,391.435379752521,392.783762565081,394.132340426153,395.48111884318,396.830103301498,398.179299266978,399.528712184644,400.878347476225,402.228210540877,403.578306756247,404.928641473987,406.279220022159,407.630047702461,408.98112979246,410.332471540876,411.684078171611,413.035954876752,414.388106823137,415.740539146615,417.093256951677,418.446265313183,419.799569273834,421.153173843845,422.507083999268,423.861304683372,425.21584080385,426.570697231908,427.925878803902
192.317061172492,193.695602265812,195.073637119746,196.451167195107,197.828194042539,199.204719300785,200.580744696986,201.956272044503,203.331303243525,204.705840277273,206.07988521528,207.45344020739,208.826507485238,210.199089363194,211.57118823268,212.942806564775,214.313946907606,215.684611885035,217.054804196818,218.424526616385,219.793781990199,221.162573236715,222.530903344691,223.898775373201,225.266192450661,226.633157771734,227.999674597662,229.365746256611,230.731376139148,232.09656770172,233.46132446079,234.825649994975,236.189547943825,237.553022005243,238.91607593591,240.278713548964,241.640938715101,243.002755359185,244.36416746066,245.725179052602,247.085794219527,248.446017098173,249.80585187534,251.165302787414,252.524374119165,253.883070203233,255.241395418774,256.599354190986,257.956950989524,259.314190328395,260.671076764945,262.027614897909,263.383809369011,264.739664859165,266.095186089692,267.45037782017,268.805244849057,270.159792011256,271.514024178996,272.867946259558,274.221563194623,275.574879961535,276.927901569133,278.280633060338,279.633079507894,280.985246017978,282.337137725367,283.688759795383,285.040117420363,286.391215823458,287.742060253063,289.092655985284,290.443008321869,291.793122589,293.14300414001,294.492658349948,295.842090617217,297.191306364043,298.540311032903,299.889110090124,301.237709019222,302.586113326377,303.934328537424,305.282360194437,306.630213859812,307.977895111796,309.325409547827,310.672762778279,312.019960432807,313.367008153128,314.713911597481,316.060676436434,317.407308355297,318.753813051276,320.100196233659,321.446463623626,322.792620953056,324.138673963989,325.48462840903,326.830490049504,328.176264655804,329.521958005997,330.867575886348,332.213124089616,333.558608415469,334.904034669284,336.249408661961,337.594736209099,338.940023130745,340.285275250758,341.630498395991,342.975698396222,344.320881083197,345.666052290358,347.011217852167,348.356383603614,349.701555379678,351.04673901476,352.391940342215,353.737165193702,355.08241939874,356.427708784194,357.773039173475,359.118416386415,360.463846238342,361.809334539884,363.154887096215,364.500509705809,365.846208161786,367.191988249907,368.537855747678,369.883816424432,371.229876041636,372.57604035035,373.922315092561,375.268705999705,376.615218791758,377.961859177636,379.308632853784,380.655545504199,382.002602797869,383.349810393561,384.697173931768,386.044699040093,387.392391329185,388.74025639419,390.088299813323,391.436527147561,392.784943938271,394.133555708019,395.482367963809,396.831386186749,398.180615842004,399.53006237137,400.879731194289,402.229627708979,403.579757288304,404.930125283839,406.280737020441,407.631597798162,408.982712891693,410.334087547419,411.685726986482,413.03763639884,414.389820949007,415.742285770536,417.095035964811,418.448076605385,419.801412731024,421.155049349937,422.508991436288,423.863243929199,425.217811735717,426.572699723493,427.927912726246
192.313416048609,193.691978110628,195.070034257126,196.447585944053,197.824634717911,199.201182214248,200.577230155989,201.952780352288,203.327834699914,204.702395178439,206.076463852706,207.45004286869,208.823134455959,210.195740923305,211.567864658128,212.939508128636,214.310673878894,215.681364528735,217.051582773812,218.421331384895,219.790613203876,221.159431145598,222.52778819516,223.89568740895,225.263131910094,226.630124889773,227.996669607108,229.362769385197,230.728427612098,232.093647739676,233.458433281813,234.822787813516,236.186714970733,237.550218447877,238.913301997803,240.275969431107,241.638224614904,243.000071470446,244.361513974274,245.722556155325,247.083202096032,248.443455929208,249.803321838798,251.162804058099,252.521906868667,253.880634599517,255.238991627543,256.596982374296,257.95461130668,259.31188293519,260.668801815275,262.025372542134,263.381599754917,264.737488130793,266.093042388602,267.448267284929,268.803167616034,270.157748214143,271.512013947731,272.865969722071,274.219620476294,275.572971184175,276.926026852745,278.278792521175,279.631273261226,280.983474174566,282.335400395292,283.687057084751,285.038449432998,286.389582660641,287.740462014755,289.091092767067,290.44148021824,291.791629692098,293.141546538259,294.491236130183,295.840703863363,297.18995515879,298.538995455163,299.887830217287,301.236464927507,302.58490508801,303.933156221222,305.28122386992,306.629113591387,307.976830964507,309.324381581257,310.671771053364,312.019005004436,313.366089076853,314.713028925515,316.059830219547,317.406498641329,318.753039885986,320.099459660822,321.445763684514,322.791957686951,324.138047408791,325.484038599698,326.829937019214,328.175748435096,329.521478624106,330.867133370225,332.212718463463,333.558239702068,334.90370288931,336.249113833834,337.59447834913,338.939802253365,340.285091368099,341.630351518367,342.975588531749,344.320808237975,345.66601646842,347.011219055498,348.356421832146,349.701630631292,351.046851285296,352.39208962545,353.73735148134,355.082642680435,356.42796904753,357.773336403939,359.118750567639,360.4642173517,361.809742564694,363.155332009444,364.500991483128,365.846726776,367.192543672209,368.538447946806,369.884445367033,371.230541692233,372.576742671945,373.923054045454,375.269481542244,376.616030879761,377.96270776512,379.309517892854,380.656466944079,382.003560587008,383.350804475851,384.698204251269,386.045765537301,387.393493943127,388.741395060733,390.089474467475,391.437737718889,392.786190357472,394.13483790359,395.483685858746,396.832739704835,398.182004903521,399.531486893387,400.881191092848,402.231122897107,403.581287677089,404.931690780733,406.282337531832,407.633233227623,408.98438313914,410.335792511389,411.687466563162,413.039410482,414.391629428802,415.744128534552,417.096912898665,418.449987592425,419.803357651361,421.15702808085,422.511003852731,423.865289903786,425.219891137235,426.574812418509,427.930058578429
192.309581488663,193.688165597848,195.066244131804,196.443818541488,197.820890370335,199.197461249847,200.573532897393,201.9491071205,203.32418580936,204.69877094137,206.072864575755,207.446468855933,208.819586005889,210.19221833099,211.564368216305,212.936038122822,214.30723059257,215.677948241199,217.04819376111,218.41796991731,219.787279549095,221.156125566683,222.524510952153,223.892438756922,225.259912100726,226.626934171447,227.99350822433,229.359637577715,230.72532561746,232.090575790584,233.455391607396,234.819776639201,236.183734518872,237.547268936325,238.910383642166,240.273082442568,241.635369200736,242.997247835174,244.358722318332,245.719796677158,247.080474988304,248.440761383494,249.800660042001,251.160175194108,252.519311117982,253.878072139726,255.236462632741,256.594487015265,257.952149751378,259.309455348416,260.666408357952,262.023013373409,263.379275028742,264.735198000361,266.090787003143,267.446046790672,268.800982156486,270.155597928677,271.509898974844,272.863890195239,274.217576527833,275.570962942647,276.924054443948,278.276856068615,279.629372885873,280.981609993648,282.333572523898,283.685265634209,285.03669451481,286.387864380206,287.738780476541,289.089448072912,290.439872467206,291.790058980983,293.14001296031,294.489739776981,295.83924482458,297.188533519803,298.537611300522,299.886483627698,301.235155981978,302.583633863409,303.931922791379,305.280028306389,306.627955964132,307.975711339611,309.323300023771,310.670727624823,312.017999765172,313.365122084963,314.712100235654,316.058939884133,317.405646710781,318.752226409695,320.098684684231,321.445027251456,322.791259839262,324.137388185209,325.48341803763,326.829355153475,328.175205298511,329.52097424672,330.866667780246,332.212291687302,333.55785176361,334.903353809699,336.248803632634,337.594207043802,338.939569858957,340.284897897451,341.630196982186,342.97547293865,344.320731594401,345.66597877862,347.011220321575,348.356462054027,349.701709806743,351.046969409919,352.392246692661,353.737547482455,355.082877604605,356.428242881514,357.77364913275,359.119102173716,360.464607815418,361.810171864274,363.155800120994,364.501498380643,365.847272431152,367.193128054007,368.539071022456,369.885107102286,371.231242049441,372.577481611656,373.923831526015,375.270297519285,376.616885308714,377.963600595656,379.310449074499,380.657436423817,382.004568309989,383.35185038429,384.699288285321,386.046887634549,387.394654038225,388.742593087388,390.090710355139,391.439011397532,392.787501751753,394.136186936786,395.485072452526,396.834163777649,398.183466370255,399.532985668738,400.882727087541,402.232696018521,403.582897832122,404.933337873094,406.284021461455,407.634953892682,408.986140435816,410.337586332318,411.689296797675,413.041277019085,414.393532152931,415.746067327527,417.098887640785,418.451998158896,419.805403916026,421.159109915779,422.51312112542,423.867442480032,425.2220788788,426.577035185437,427.932316226787
192.305557803838,193.684165034858,195.062267046283,196.439865288019,197.81696129702,199.193556699793,200.569653211732,201.945252634481,203.320356854331,204.694967844407,206.069087660119,207.442718439582,208.8158624037,210.188521852506,211.560699166932,212.932396805642,214.303617304448,215.674363275059,217.044637405735,218.414442458117,219.783781266304,221.152656737511,222.521071849378,223.889029648617,225.256533251799,226.623585842383,227.990190671509,229.356351053997,230.722070370921,232.087352066188,233.452199645973,234.816616678303,236.180606791245,237.544173671472,238.907321066079,240.270052777143,241.632372663962,242.994284641961,244.355792679714,245.716900799747,247.077613076816,248.437933637573,249.7978666583,251.157416366419,252.516587035865,253.875382989175,255.233808597091,256.591868273705,257.949566480594,259.306907721443,260.66389654413,262.020537538668,263.376835337085,264.732794611106,266.088420073305,267.443716474045,268.79868860315,270.153341287031,271.507679388156,272.861707805472,274.215431473809,275.56885535893,276.92198446297,278.274823820513,279.627378496417,280.979653587014,282.331654220461,283.683385552385,285.034852768773,286.386061084018,287.737015738224,289.0877220003,290.438185163565,291.788410547757,293.138403496907,294.488169378628,295.837713585451,297.187041529777,298.536158648774,299.885070399231,301.233782258908,302.58229972621,303.930628319022,305.278773573753,306.626741043441,307.974536301857,309.3221649366,310.669632553627,312.016944772555,313.364107230774,314.71112557879,316.058005480315,317.404752613099,318.751372668097,320.097871347603,321.444254366374,322.790527448626,324.13669633077,325.482766757965,326.828744485402,328.174635276292,329.520444902398,330.866179143405,332.211843785296,333.557444621347,334.902987449947,336.24847807577,337.593922308248,338.939325960147,340.284694849425,341.630034796008,342.97535162332,344.320651156768,345.665939223072,347.011221650325,348.356504267008,349.70179290157,351.047093382025,352.392411535154,353.737753186142,355.083124158048,356.428530271067,357.773977342279,359.119471184956,360.465017607884,361.810622415016,363.156291404831,364.502030370038,365.84784509647,367.193741362849,368.539724940643,369.885801592607,371.231977073524,372.578257127902,373.924647490069,375.271153885475,376.617782027519,377.964537617184,379.311426345428,380.658453888338,382.005625909757,383.352948059639,384.700425971821,386.04806526624,387.395871548914,388.743850405784,390.092007408252,391.440348109895,392.788878045468,394.137602731317,395.486527664548,396.835658321444,398.185000157956,399.53455860871,400.884339086819,402.234346981536,403.584587659341,404.935066462332,406.285788708987,407.6367596922,408.987984676117,410.339468902358,411.691217581823,413.043235898365,414.395529006717,415.748102032101,417.100960069239,418.454108181778,419.807551401298,421.161294727355,422.515343124706,423.869701525135,425.224374825562,426.579367886207,427.934685530895
192.301345321042,193.679976743507,195.058103321602,196.435726498605,197.81284780834,199.189468872609,200.565591403054,201.941217194544,203.316348131427,204.690986180735,206.0651333944,207.438791906199,208.811963931296,210.184651766622,211.556857787284,212.928584448579,214.299834281307,215.670609893993,217.040913969283,218.410749264962,219.780118610688,221.149024909905,222.517471134207,223.885460328301,225.25299560333,226.620080139238,227.986717181855,229.352910043079,230.718662099576,232.08397679044,233.448857618875,234.813308147868,236.177332001566,237.540932864065,238.904114476754,240.266880638731,241.629235205396,242.991182088103,244.352725251642,245.71386871523,247.074616549328,248.434972876808,249.794941870814,251.154527754058,252.513734798264,253.872567321811,255.23102969074,256.589126317516,257.946861658628,259.304240215446,260.661266532168,262.017945195115,263.374280832523,264.73027811348,266.085941747045,267.441276480162,268.796287099921,270.150978428106,271.505355325677,272.859422687847,274.213185444624,275.566648561784,276.919817036088,278.272695899171,279.625290213245,280.977605072457,282.329645600212,283.681416950386,285.032924306436,286.384172878571,287.735167904683,289.085914650562,290.436418406753,291.786684490103,293.136718241849,294.486525027444,295.836110234858,297.185479275802,298.534637583405,299.883590612332,301.232343837523,302.580902755006,303.92927287941,305.277459743462,306.625468899882,307.97330591834,309.320976384478,310.668485900686,312.015840085829,313.363044573721,314.710105011711,316.057027061292,317.403816398641,318.750478710195,320.097019697731,321.443445072189,322.789760556799,324.135971883891,325.482084797479,326.828105049341,328.174038400603,329.519890620766,330.865667486678,332.211374782379,333.55701829822,334.902603830713,336.248137181774,337.593624158302,338.939070571197,340.284482235363,341.629864968976,342.975224592679,344.320566929528,345.665897804021,347.011223041676,348.356548468736,349.701879911225,351.047223194774,352.392584143719,353.737968580887,355.08338232699,356.428831199956,357.77432101409,359.119857580542,360.465446705893,361.811094191248,363.156805833175,364.502587421208,365.848444739432,367.194383564337,368.540409664176,369.886528799778,371.232746722971,372.579069176113,373.925501891548,375.27205059221,376.618720988086,377.965518778186,379.31244965082,380.659519279526,382.006733326006,383.354097436855,384.701617244783,386.049298366628,387.397146404364,388.745166942862,390.093365550849,391.441747778207,392.79031915808,394.139085203892,395.48805141032,396.837223249648,398.186606176034,399.536205622643,400.886026996918,402.236075687504,403.586357057426,404.936876447132,406.2876391704,407.638650517184,408.989915751416,410.341440108622,411.693228798906,413.045287001771,414.39761987019,415.750232525207,417.103130059796,418.456317533626,419.809799975419,421.163582381384,422.517669713418,423.872066900663,425.226778836061,426.58181037633,427.937166343248
192.296944383069,193.675601063599,195.053753291151,196.43140250406,197.808550231293,199.185198091598,200.561347788716,201.93700111612,203.312159952012,204.686826258882,206.061002082934,207.434689554377,208.807890884451,210.180608364088,211.552844364458,212.924601335703,214.295881804931,215.666688375242,217.037023725223,218.406890607226,219.776291847708,221.145230344538,222.5137090664,223.881731051438,225.249299407955,226.616417310062,227.983088000814,229.349314786609,230.715101040716,232.080450197502,233.445365756525,234.809851275246,236.173910375029,237.537546734461,238.900764092002,240.26356624214,241.625957036118,242.987940381483,244.349520239692,245.710700624642,247.071485603576,248.431879295724,249.791885870114,251.151509545415,252.510754589856,253.869625318294,255.228126092928,256.586261322273,257.944035459114,259.30145300084,260.658518488944,262.015236505596,263.371611676107,264.7276486656,266.083352178935,267.43872696137,268.793777794473,270.148509498565,271.502926930221,272.857034981175,274.210838578913,275.564342684723,276.917552294014,278.270472433376,279.623108162759,280.97546457253,282.327546784262,283.679359947551,285.030909242364,286.382199876373,287.733237085206,289.084026130816,290.434572301191,291.784880909779,293.134957294856,294.484806819086,295.834434867631,297.183846849654,298.533048194449,299.882044354157,301.230840801352,302.579443028862,303.927856549408,305.276086891969,306.624139606827,307.972020259852,309.319734436032,310.667287733527,312.014685769471,313.361934173195,314.709038591154,316.056004682585,317.402838118437,318.749544586033,320.096129782335,321.44259941537,322.788959206733,324.135214886059,325.48137219431,326.827436881342,328.17341470518,329.519311433008,330.865132839062,332.210884704822,333.55657281833,334.902202973358,336.247780969482,337.593312610744,338.938803705968,340.284260067339,341.629687510504,342.97509185371,344.320478917403,345.665854523662,347.01122449555,348.356594656701,349.701970830784,351.047358840733,352.392764508607,353.738193654642,355.083652097017,356.429145651214,357.77468012906,359.120261339242,360.465895085434,361.811587166666,363.157343376813,364.50316950319,365.849071326989,367.195054621654,368.541125154052,369.887288681867,371.233550954053,372.579917710556,373.926394682253,375.27298758772,376.619702134984,377.966544021618,379.313518931489,380.660632536681,382.007890495171,383.355298452166,384.702862036701,386.050586863472,387.398478530926,388.746542622995,390.094784703877,391.443210321816,392.791825006125,394.140634268687,395.489643599339,396.838858469517,398.188284331043,399.537926611647,400.887790718437,402.237882035157,403.588205923391,404.938767719524,406.289572734885,407.640626256485,408.991933545326,410.343499833804,411.695330328176,413.047430206403,414.399804616558,415.75245867853,417.105397479969,418.458626079218,419.812149500573,421.165972737362,422.520100749072,423.874538460006,425.229290759592,426.584362503893,427.939758508486
192.292355347282,193.671038348233,195.049217304795,196.426893650247,197.804068909077,199.180744693223,200.556922704029,201.93260472924,203.307792641264,204.682488398576,206.056694043057,207.430411698844,208.80364357259,210.176391951275,211.548659200449,212.920447765774,214.291760168709,215.662599008613,217.032966959347,218.402866767607,219.772301256201,221.141273317196,222.509785915354,223.877842084421,225.245444927501,226.612597614871,227.97930338386,229.345565537703,230.711387444106,232.076772533268,233.441724299721,234.806246298519,236.1703421447,237.534015513808,238.897270138747,240.260109811074,241.622538376907,242.984559739691,244.346177856674,245.7073967381,247.068220447271,248.428653098382,249.788698857387,251.148361938545,252.507646605762,253.866557170349,255.22509799085,256.583273471712,257.941088062462,259.298546255549,260.655652589514,262.012411642449,263.368828035876,264.72490643187,266.080651531532,267.436068075975,268.791160843394,270.145934651266,271.500394351126,272.854544832944,274.208391020151,275.561937870464,276.915190375157,278.268153558666,279.620832477278,280.973232218075,282.325357898383,283.677214666494,285.028807697717,286.380142196372,287.731223396074,289.082056553779,290.432646956277,291.782999912963,293.133120759835,294.483014854758,295.832687581778,297.182144345766,298.531390574055,299.880431715078,301.229273238458,302.577920634519,303.926379411303,305.274655097838,306.622753240162,307.970679401336,309.318439162174,310.666038120373,312.013481888178,313.360776093931,314.707926379233,316.054938402221,317.401817831379,318.748570349315,320.095201651483,321.441717443561,322.788123443701,324.134425379968,325.480628989237,326.826740018978,328.172764225106,329.518707371695,330.864575230542,332.210373580491,333.556108206753,334.901784900608,336.247409458982,337.592987683254,338.938525379716,340.284028357839,341.629502430611,342.974953413958,344.320387125423,345.665809384573,347.011226011864,348.356642828352,349.702065655016,351.047500312348,352.39295261964,353.738428394695,355.083933452851,356.429473607127,357.775054666773,359.120682437674,360.466362721016,361.812101313504,363.157904005817,364.503776582732,365.849724822832,367.195754497453,368.541871370053,369.88808119607,371.234389721676,372.580802684097,373.927325811686,375.273964819313,376.6207254136,377.967613289293,379.314634126507,380.661793594961,382.009097350953,383.356551035315,384.704160275179,386.051930682635,387.399867853284,388.747977366632,390.096264785787,391.44473565537,392.793395502198,394.142249834622,395.491304140514,396.840563887402,398.190034524339,399.53972147616,400.889630147256,402.239765918233,403.590134146862,404.940740167534,406.291589288289,407.642686792338,408.994037936765,410.345647952993,411.697522043294,413.049665381937,414.402083113988,415.754780355643,417.107762191832,418.461033676684,419.814599832312,421.168465648392,422.522636080117,423.877116049074,425.2319104419,426.587024108723,427.942461864695
192.287578589084,193.666288968911,195.044495729073,196.42220029861,197.799404197414,199.176109031553,200.552316497403,201.92802837733,203.303246539824,204.677972936862,206.052209606195,207.425958667066,208.799222320047,210.172002847452,211.544302610723,212.916124048795,214.287469680206,215.658342097837,217.028743970473,218.398678041389,219.768147126992,221.137154115208,222.505701966097,223.873793707486,225.241432438685,226.608621325409,227.975363599302,229.341662559858,230.707521568767,232.072944053609,233.437933502874,234.802493467341,236.166627557175,237.530339443797,238.89363285573,240.256511579635,241.618979458149,242.981040389596,244.34269832698,245.703957276062,247.064821296323,248.425294497821,249.785381041573,251.145085138331,252.504411047596,253.863363077381,255.221945580567,256.580162959052,257.938019657298,259.295520164967,260.652669015721,262.009470784186,263.365930088307,264.722051585908,266.077839973919,267.433299990367,268.788436410037,270.143254045356,271.497757745818,272.85195239651,274.205842918118,275.559434264381,276.912731423324,278.265739415621,279.618463294383,280.970908142928,282.32307907524,283.674981235871,285.026619797285,286.377999960886,287.729126955862,289.080006036624,290.430642486407,291.781041611513,293.131208744541,294.481149240769,295.830868479837,297.180371864592,298.529664818926,299.878752788202,301.227641238965,302.576335658409,303.924841552289,305.273164445347,306.621309880307,307.9692834192,309.317090638418,310.664737132532,312.012228512123,313.35957040119,314.706768440052,316.053828281738,317.400755594101,318.74755605569,320.094235359251,321.440799208182,322.787253317056,324.133603410593,325.479855224131,326.826014502042,328.17208699707,329.518078471163,330.863994692687,332.209841437963,333.555624489443,334.901349635934,336.247022671141,337.592649394057,338.93823560795,340.283787119847,341.629309739875,342.974809281127,344.320291558676,345.665762389215,347.011227590533,348.356692980955,349.702164378759,351.047647601734,352.393148466366,353.738672787826,355.084226378777,356.429815049372,357.775444606262,359.121120852533,360.466849586758,361.812636602569,363.158487688072,364.504408625623,365.850405190818,367.196483151992,368.542648269659,369.888906297761,371.23526297799,372.581724045343,373.928295225514,375.274982231354,376.621790765344,377.968726519072,379.315795171824,380.663002389449,382.01035382421,383.357855115482,384.705511886592,386.053329746604,387.401314289519,388.74947109051,390.097805710075,391.446323690605,392.795030554928,394.143931807767,395.493032935333,396.842339402789,398.1918566525,399.541590109964,400.89154517478,402.241727224642,403.592141614011,404.942793673404,406.293688708781,407.644831999746,408.996228800644,410.34788433876,411.699803812467,413.051992392826,414.404455223372,415.757197415358,417.110224050221,418.463540179273,419.81715082055,421.171060960422,422.52527555017,423.879799508486,425.234637718143,426.589795025518,427.945276241099
192.282614498017,193.661353310093,195.039588945359,196.417322826616,197.794556468749,199.171291473808,200.547529531659,201.923272419902,203.298522001883,204.673280224161,206.047549118828,207.421330799872,208.794627463394,210.167441385772,211.539774923298,212.911630510332,214.28301065937,215.653917958401,217.02435507129,218.394324736074,219.763829763509,221.132873037946,222.501457512215,223.86958621159,225.237262228808,226.604488724182,227.971268926352,229.337606127599,230.703503687185,232.068965026118,233.433993628124,234.798593040189,236.162766867103,237.526518776311,238.889852490596,240.252771793091,241.61528052053,242.977382567944,244.339081883132,245.700382467598,247.061288376481,248.421803715427,249.781932641236,251.141679359961,252.501048127067,253.860043246185,255.218669066639,256.576929984489,257.934830441466,259.29237492297,260.649567958194,262.006414118219,263.362918016527,264.719084306913,266.074917683022,267.430422878205,268.785604663353,270.140467848476,271.495017277812,272.849257833026,274.203194430822,275.556832021576,276.910175589951,278.263230152927,279.616000759145,280.968492488707,282.320710452294,283.672659791259,285.024345673826,286.3757732983,287.726947890677,289.077874701307,290.428559010824,291.779006121285,293.129221362094,294.479210086253,295.828977669697,297.178529510798,298.527871030611,299.877007672983,301.225944899506,302.574688194697,303.923243060343,305.271615019493,306.619809611238,307.967832393606,309.315688941332,310.663384845304,312.010925712767,313.358317164793,314.705564839027,316.052674384979,317.399651467428,318.746501762406,320.09323096031,321.439844760082,322.786348873981,324.132749023873,325.479050943157,326.825260371746,328.171383059825,329.517424766937,330.863391258603,332.20928830785,333.555121694275,334.900897203999,336.246620627904,337.592297762226,338.937934407127,340.283536366865,341.629109448976,342.974659463407,344.320192222558,345.665713540251,347.011229231468,348.356745111694,349.702266996386,351.047800700473,352.393352037719,353.738926820286,355.084530858148,356.430169958543,357.775849925466,359.121576558889,360.467355654737,361.813193003595,363.159094390848,364.505065595995,365.851112391745,367.197240544188,368.543455809072,369.889763938654,371.236170672533,372.582681742489,373.929302869446,375.276039765404,376.622898128895,377.969883649145,379.317002001667,380.664258849805,382.011659842701,383.359210616006,384.706916791906,386.054783975427,387.402817756321,388.751023708171,390.099407387969,391.447974333897,392.796730068239,394.145680089991,395.494829883971,396.84418490944,398.19375060929,399.543532402526,400.89353568707,402.243765837151,403.594228204152,404.944928115538,406.295870872092,407.647061751672,408.998506004856,410.350208854105,411.702175496833,413.054411099489,414.40692080121,415.759709710575,417.112782905535,418.466145433615,419.819802308587,421.173758513284,422.528018996521,423.882588671883,425.23747241879,426.59267508044,427.948201462645
192.277463481046,193.656231773592,195.034497349017,196.412261625527,197.789526111576,199.166292403285,200.54256218629,201.9183372316,203.293619397191,204.668410624654,206.042712940671,207.416528453623,208.78985935435,210.162707913284,211.53507648128,212.906967488077,214.278383439425,215.649326919084,217.019800585919,218.389807171721,219.75934948279,221.128430396828,222.497052862708,223.865219900123,225.232934596496,226.60020010702,227.967019655011,229.333396529095,230.69933408128,232.064835729155,233.42990495081,234.794545287695,236.158760341725,237.522553773231,238.885929301875,240.248890704237,241.611441814345,242.973586520971,244.335328767641,245.696672551919,247.057621923208,248.418180983274,249.778353884143,251.138144827469,252.49755806414,253.856597893311,255.215268660261,256.573574756863,257.931520620051,259.289110731641,260.646349615156,262.003241838636,263.359792011474,264.716004782506,266.071884842604,267.427436919788,268.782665781719,270.137576233382,271.492173116164,272.846461308314,274.200445721168,275.554131301941,276.907523031085,278.260625922275,279.613445020161,280.965985401199,282.318252173258,283.670250471805,285.021985463832,286.373462342866,287.724686330678,289.075662676058,290.426396653301,291.776893563301,293.127158731797,294.477197507134,295.827015261903,297.176617392018,298.526009315558,299.875196471069,301.224184318829,302.572978338569,303.921584029642,305.270006911506,306.618252520474,307.966326410725,309.314234153759,310.661981337496,312.0095735658,313.357016457518,314.704315645486,316.051476777823,317.398505514875,318.745407531177,320.092188511523,321.438854154175,322.785410166952,324.131862269862,325.478216191735,326.824477670472,328.170652453581,329.516746296465,330.862764961961,332.208714220851,333.55459984942,334.900427630331,336.246203352088,337.591932807547,338.93762179425,340.283276113332,341.628901569276,342.97450396928,344.320089122688,345.66566284045,347.011230934577,348.356799217613,349.702373502088,351.047959599986,352.393563322019,353.739190477751,355.084846873779,356.430538314705,357.776270601384,359.122049530862,360.467880896232,361.813770485144,363.159724079867,364.505747456774,365.851846385807,367.198026629181,368.544293942356,369.89065407156,371.237112754277,372.583675719505,373.93034868579,375.277137360636,376.624047440358,377.971084611463,379.318254545568,380.665562903375,382.013015330801,383.360617460092,384.708374910281,386.056293283258,387.404378166198,388.752635129058,390.101069725126,391.449687490416,392.798493941745,394.14749457839,395.496694878159,396.846100299815,398.195716281795,399.545548239565,400.895601567176,402.245881635944,403.596393793861,404.947143364768,406.298135646501,407.649375913426,409.000869411165,410.352621359854,411.704636952979,413.056921353544,414.409479696856,415.762317087401,417.115438599882,418.468849277655,419.822554131902,421.176558140014,422.530866247561,423.885483364711,425.240414366471,426.595664091872,427.95123734371
192.272125959821,193.650924778068,195.029221354888,196.407017104121,197.784313527912,199.161112217932,200.53741485313,201.913223200022,203.288539109199,204.663364518608,206.037701447107,207.411551998172,208.784918357282,210.1578027893,211.530207640172,212.902135332241,214.273588367937,215.64456932347,217.015080852734,218.385125682441,219.754706612192,221.123826516425,222.492488337329,223.860695088362,225.228449852847,226.595755780501,227.962616088981,229.329034061387,230.695013045124,232.060556451751,233.425667755156,234.790350491963,236.154608257586,237.518444708159,238.881863557677,240.244868578938,241.607463600617,242.969652505764,244.331439233667,245.692827777259,247.053822181011,248.414426541471,249.774645006492,251.134481773334,252.493941088178,253.853027244145,255.211744584121,256.570097494282,257.928090407259,259.285727799847,260.643014192496,261.999954148512,263.356552271766,264.712813208282,266.068741644099,267.424342302756,268.779619948439,270.134579381757,271.489225439994,272.843562996072,274.197596958813,275.551332271503,276.904773910153,278.25792688438,279.610796234862,280.963387034891,282.31570438718,283.667753425105,285.019539310238,286.371067233296,287.722342412413,289.073370092002,290.424155543797,291.774704064245,293.125020974477,294.475111621515,295.824981373278,297.17463562206,298.524079782629,299.873319289331,301.222359599884,302.571206190155,303.919864556653,305.268340214564,306.616638697944,307.964765555781,309.312726358716,310.660526689165,312.00817214898,313.355668353413,314.703020931883,316.050235529284,317.397317803002,318.744273423788,320.091108073234,321.437827447361,322.784437249861,324.130943198189,325.477351017853,326.823666443067,328.169895219141,329.51604309777,330.862115839149,332.208119210275,333.554058984608,334.899940941971,336.245770867377,337.591554550965,338.937297787034,340.2830063738,341.628686112598,342.974342807527,344.319982264909,345.665610292699,347.011232699763,348.356855295646,349.702483889781,351.048124291197,352.393782307628,353.739463745138,355.085174407811,356.430920096858,357.776706610245,359.122539741577,360.468425281402,361.814369014047,363.160376718831,364.506454168713,365.852607130871,367.198841364489,368.545162621106,369.891576644283,371.238089169053,372.584705920812,373.931432614354,375.278274954397,376.625238634763,377.97232933764,379.319552731795,380.666914474427,382.014420209292,383.362075565366,384.709886156919,386.057857583066,387.405995428433,388.754305259229,390.102792625777,391.451463058498,392.800322074401,394.14937516647,395.498627810169,396.848085461549,398.197753554017,399.547637500148,400.897742691034,402.248074494313,403.59863825342,404.949439289268,406.300482897082,407.65177434517,409.003318877039,410.355121710104,411.70718803184,413.059523002503,414.412131753405,415.765019385848,417.118190970658,418.471651546024,419.825406120152,421.179459666979,422.53381712633,423.888483406459,425.243463376842,426.5987618728,427.954383692958
192.266602373559,193.645432754982,195.02376138985,196.401589684904,197.778919137598,199.155751331895,200.532087942739,201.90793072923,203.283281537095,204.658142297993,206.032515025508,207.406401817673,208.779804852396,210.152726389894,211.525168769395,212.897134409151,214.268625804037,215.639645525709,217.010196221702,218.380280613179,219.749901494381,221.11906173327,222.487764267138,223.856012103856,225.223808320853,226.591156062704,227.958058541056,229.324519034076,230.690540883612,232.056127495591,233.421282338747,234.786008943794,236.150310902021,237.514191863825,238.877655538271,240.240705691874,241.603346149371,242.965580788182,244.327413543297,245.688848401817,247.049889403683,248.41054064026,249.770806254978,251.13069043969,252.490197435671,253.849331533107,255.208097067598,256.566498422075,257.924540024422,259.282226346464,260.639561904814,261.99655125739,263.353199004456,264.70950978706,266.0654882862,267.421139222991,268.776467355444,270.131477480952,271.486174431396,272.840563076687,274.194648321277,275.548435103396,276.901928396212,278.255133204263,279.608054564996,280.960697546762,282.313067249726,283.665168801424,285.017007360909,286.368588114695,287.719916276472,289.070997087941,290.421835815828,291.772437753894,293.122808219497,294.472952554144,295.822876124396,297.172584318143,298.522082545516,299.871376238486,301.2204708505,302.569371854877,303.918084742253,305.266615026927,306.614968237839,307.96314992163,309.311165644391,310.659020986341,312.006721544131,313.354272931019,314.701680773142,316.048950710548,317.396088399486,318.743099504686,320.089989707696,321.436764698292,322.783430179356,324.129991862228,325.476455470737,326.82282673697,328.169111400839,329.515315211514,330.86144392671,332.207503309378,333.553499130513,334.899437166002,336.245323198293,337.591163013893,338.936962403876,340.282727163605,341.628463091098,342.974175987289,344.319871655359,345.665555899956,347.011234526925,348.35691334261,349.702598153325,351.048294764807,352.39400898172,353.739746606912,355.085513441413,356.431315283261,357.777157926885,359.123047163618,360.46898877965,361.814988556636,363.161052270538,364.507185691871,365.853394583713,367.199684701904,368.546061796086,369.892531605002,371.239099861437,372.5857722867,373.932554593225,375.279452481609,376.626471642934,377.973617755251,379.320896485788,380.668313486647,382.015874398203,383.363584846978,384.711450443964,386.0594767841,387.407669448652,388.756034000885,390.104575986792,391.453300935155,392.802214357209,394.151321743166,395.500628565403,396.850140275801,398.199862304514,399.549800060937,400.899958931265,402.250344280961,403.600961448552,404.951815751143,406.302912480917,407.654256902627,409.005854255227,410.357709752099,411.709828577522,413.062215887157,414.414876809282,415.767816440444,417.121039846953,418.474552065131,419.828358096813,421.182462912526,422.536871449068,423.891588608563,425.246619257909,426.601968227116,427.957640311183
192.260893176005,193.639756155302,195.018117898877,196.395979808062,197.77334337276,199.150210173701,200.526581877216,201.902460237384,203.277847094232,204.652744372639,206.027154080878,207.401078309411,208.774519232436,210.147479102009,211.519960252847,212.891965096557,214.263496121842,215.634555894481,217.005147056608,218.375272323283,219.744934482958,221.114136397196,222.482880997504,223.851171286796,225.219010335836,226.586401284263,227.953347337643,229.319851768131,230.685917912972,232.05154917174,233.416749008114,234.781520946984,236.14586857446,237.509795534093,238.873305531668,240.236402328459,241.599089741485,242.961371645578,244.323251968907,245.684734693663,247.045823854643,248.406523538647,249.766837883813,251.126771076879,252.486327354653,253.845511001481,255.20432634893,256.562777774495,257.920869701936,259.278606598076,260.635992974014,261.99303338387,263.349732423311,264.706094728425,266.062124976355,267.417827882333,268.773208201146,270.128270724793,271.483020281847,272.837461737361,274.19159999143,275.545439977901,276.898986665299,278.252245054369,279.60522017917,280.957917103166,282.310340920977,283.662496758599,285.014389769754,286.366025136361,287.717408069508,289.068543806116,290.419437609504,291.770094768529,293.12052059752,294.470720433977,295.820699640677,297.170463601287,298.520017722478,299.869367433172,301.218518181875,302.567475438537,303.916244690948,305.264831449355,306.613241238301,307.961479601758,309.309552101869,310.657464314878,312.005221835261,313.352830271334,314.700295246239,316.047622397313,317.394817375378,318.741885843995,320.088833479335,321.435665968524,322.782389011611,324.129008316211,325.475529602229,326.821958598681,328.168301042538,329.514562679507,330.860749263314,332.206866554234,333.552920319001,334.89891633175,336.244860370396,337.5907582186,338.936615664249,340.282438498907,341.628232517587,342.974003518201,344.319757300216,345.665499665315,347.011236415961,348.356973355193,349.702716286117,351.048471011062,352.394243331452,353.740039047206,355.085863955462,356.431723851264,357.777624526228,359.123571767446,360.46957135812,361.815629077273,363.161750696989,364.507941984114,365.854208698816,367.200556593844,368.546991415243,369.893518897901,371.240144772174,372.586874755505,373.93371455645,375.280669873173,376.627746392625,377.974949789979,379.322285727989,380.669759857051,382.017377812714,383.3651452173,384.713067679754,386.06115079119,387.409400129247,388.757821252832,390.106419704673,391.455201011451,392.804170678256,394.153334193266,395.50269702496,396.852264621124,398.202042409085,399.552035792544,400.902250156192,402.252690859765,403.603363239563,404.954272607994,406.305424252564,407.656823434989,409.008475391299,410.360385328236,411.712558428935,413.064999842943,414.417714695274,415.770708078314,417.123985054717,418.477550654879,419.831409877923,421.185567690764,422.540029024013,423.894798776903,425.249881810471,426.605282952528,427.961006991937
192.254998838819,193.63389544415,195.012291341789,196.39018792689,197.76758668427,199.144489186928,200.520897095729,201.896812158199,203.272236208782,204.647171164948,206.021619029618,207.395581886771,208.769061904254,210.142061328703,211.51458248754,212.886627786011,214.258199708049,215.62930081226,216.999933734663,218.370101184482,219.739805944492,221.109050869221,222.477838885412,223.846172988929,225.214056245434,226.581491787892,227.948482816291,229.315032597769,230.681144461791,232.046821804387,233.41206808213,234.776886814978,236.141281582653,237.505256024716,238.868813839643,240.23195878341,241.594694668363,242.95702536321,244.318954791395,245.680486929631,247.041625806893,248.402375505666,249.762740157782,251.12272394553,252.482331100133,253.841565901042,255.200432675342,256.558935794781,257.917079678085,259.274868788039,260.632307630355,261.989400754501,263.346152750567,264.702568250934,266.058651927262,267.414408491106,268.76984269126,270.124959316395,271.479763189667,272.834259172311,274.188452158729,275.542347080257,276.895948899586,278.249262613602,279.602293251043,280.955045872959,282.307525568908,283.659737459682,285.011686695553,286.363378455017,287.714817944166,289.066010395453,290.416961068795,291.767675249476,293.118158246202,294.468415394674,295.818452051711,297.168273597807,298.517885436547,299.867292991894,301.216501709665,302.565517054057,303.91434451205,305.262989586764,306.611457800573,307.959754693784,309.307885825546,310.655856767394,312.003673109945,313.35134045851,314.698864432246,316.046250664958,317.39350480446,318.7406325101,320.087639454435,321.434531321797,322.781313807527,324.127992616752,325.474573465622,326.82106207922,328.167464191272,329.513785544587,330.86003188853,332.206208980365,333.552322583883,334.898378468808,336.244382410328,337.590340188381,338.936257587488,340.282140395836,341.627994405333,342.973825409853,344.319639206124,345.665441592019,347.01123836676,348.35703533001,349.702838281347,351.048653019981,352.394485343724,353.740341049112,355.086225929981,356.432145777778,357.778106380716,359.124113522793,360.470172984108,361.816290539229,363.162471957361,364.508723002252,365.855049429874,367.201456990197,368.547951424622,369.894538467285,371.241223842065,372.588013263907,373.934912438287,375.28192706001,376.62906281135,377.976325365299,379.323720379736,380.671253501724,382.018930364402,383.366756585599,384.714737770352,386.062879506231,387.41118736752,388.75966690913,390.108323671324,391.457163174769,392.806190922104,394.155412398032,395.504833066613,396.854458371438,398.204293736001,399.55434456172,400.904616227701,402.255114089912,403.605843481221,404.956809709911,406.308018059494,407.659473787158,409.011182124839,410.363148276088,411.715377418396,413.067874699158,414.420645237034,415.773694121571,417.127026410129,418.48064712925,419.834561274454,421.188773806877,422.543289653334,423.898113708616,425.253250829582,426.608705838644,427.964483520453
192.248919848764,193.627851102488,195.006282194376,196.38421451301,197.761649536573,199.138588831222,200.515034051859,201.890986940548,203.266449323193,204.641423112813,206.01591030448,207.389912976945,208.763433290451,210.136473485878,211.509035884201,212.881122884304,214.252736962721,215.623880674139,216.994556646122,218.364767581796,219.73451625862,221.103805524802,222.472638300183,223.841017574819,225.208946407882,226.576427927384,227.943465326147,229.310061865354,230.676220869518,232.041945727471,233.407239890579,234.7721068729,236.136550247874,237.500573649903,238.864180771525,240.227375362802,241.590161230733,242.952542238378,244.314522303751,245.676105397437,247.037295543868,248.398096819324,249.758513350136,251.118549314212,252.478208936907,253.837496492696,255.196416302457,256.554972734308,257.913170200806,259.271013159838,260.628506112133,261.985653602539,263.342460215877,264.698930579811,266.055069360787,267.410881265571,268.766371039234,270.12154346382,271.476403359313,272.830955581221,274.185205020727,275.539156603218,276.892815287337,278.246186066104,279.599273962567,280.952084033402,282.304621364648,283.656891073009,285.008898303686,286.360648230726,287.71214605616,289.063397008493,290.414406343434,291.765179341368,293.115721307486,294.466037573303,295.816133491862,297.166014439548,298.515685815066,299.865153038792,301.214421552865,302.5634968178,303.912384315767,305.261089546866,306.609618029112,307.957975299998,309.306166912349,310.654198436482,312.002075458083,313.349803578942,314.697388414444,316.044835594518,317.39215076297,318.739339576242,320.086407703203,321.433360823562,322.7802046296,324.126944822659,325.473587115722,326.820137229766,328.166600895593,329.51298385141,330.859291843789,332.205530626103,333.551705959107,334.897823608043,336.243889345165,337.589908946971,338.935888194074,340.281832871686,341.627748767677,342.97364167265,344.319517379745,345.665381683358,347.011240379214,348.357099263444,349.702964132248,351.048840780974,352.394735004487,353.740652595197,355.086599343877,356.432581038511,357.778603463429,359.124672399321,360.470793622605,361.81697290447,363.163216010678,364.509528700809,365.85591672827,367.202385838717,368.548941770321,369.895590253011,371.242337007854,372.589187746258,373.93614816919,375.283223967945,376.630420822153,377.97774439953,379.325200356516,380.672794334349,382.020531962879,383.368418856969,384.716460617356,386.064662828557,387.413031059644,388.761570863,390.110287773375,391.459187309221,392.808274969306,394.157556233509,395.507036562171,396.856721395495,398.206616152157,399.556726230089,400.907057003838,402.257613825937,403.608402024643,404.95942690438,406.310693744081,407.662207797452,409.013974291874,410.365998426286,411.718285374468,413.070840278269,414.423668253482,415.776774384488,417.130163724184,418.483841295588,419.837812088361,421.192081059337,422.546653131771,423.901533194455,425.256726101025,426.612236668093,427.968069676029
192.242656708912,193.621623628588,195.000090948765,196.378060052397,197.75553240984,199.132509581763,200.508993216035,201.884985047293,203.260486896641,204.635500668458,206.01002835254,207.384072020332,208.757633825915,210.130716003397,211.503320867052,212.875450809293,214.247108300417,215.618295887726,216.989016192719,218.359271913103,219.729065818108,221.098400750303,222.467279623428,223.835705420983,225.203681195487,226.571210068978,227.93829522876,229.304939928202,230.671147486882,232.036921287238,233.402264774529,234.767181456319,236.131674901059,237.495748736221,238.859406648926,240.22265238303,241.585489740564,242.94792257783,244.30995480707,245.671590394048,247.032833357,248.393687766689,249.75415774437,251.114247461364,252.473961138627,253.833303044365,255.192277494895,256.55088885257,257.909141524682,259.267039964234,260.624588666412,261.981792170666,263.338655057264,264.695181948493,266.051377506144,267.407246431377,268.762793464635,270.118023383662,271.472941002698,272.827551172959,274.181858780472,275.535868746118,276.889586024379,278.24301560185,279.596162499571,280.949031767413,282.301628488707,283.653957773684,285.006024764982,286.357834630856,287.709392568652,289.060703804295,290.411773587302,291.762607195051,293.113209928852,294.463587113886,295.813744100915,297.163686260133,298.513418988492,299.862947701117,301.212277835206,302.561414849206,303.910364219503,305.259131443015,306.607722033479,307.95614152408,309.304395464134,310.652489420404,312.00042897358,313.348219722832,314.695867278901,316.043377267805,317.390755329726,318.73800711774,320.085138295856,321.432154541183,322.779061541203,324.125864994808,325.472570609632,326.819184103852,328.165711204579,329.512157646227,330.858529171635,332.204831530733,333.551070479761,334.897251781418,336.243381203605,337.589464519403,338.935507505806,340.281515944176,341.627495618888,342.97345231721,344.319391828141,345.665319942786,347.011242453204,348.357165151874,349.703093831317,351.049034283487,352.394992299287,353.740973667844,355.086984176042,356.433029608404,357.779115745488,359.125248364595,360.471433237937,361.817676133639,363.163982813581,364.510359033784,365.856810543965,367.203343085929,368.549962394364,369.896674194979,371.243484205747,372.590398133679,373.937421676762,375.284560522145,376.631820345734,377.979206811549,379.326725571378,380.674382263843,382.022182514825,383.370131934686,384.718236120322,386.066500651877,387.414931095927,388.763532999615,390.112311895191,391.461273295462,392.810422695627,394.159765572255,395.509307380872,396.859053557726,398.209009517518,399.559180654257,400.909572337445,402.26018991641,403.611038714474,404.962124032358,406.31345114364,407.665025299249,409.016851720746,410.368935603329,411.7212821163,413.073896397565,414.4267835577,415.779948676238,417.133396802633,418.487132953987,419.841162116245,421.195489241324,422.550119247347,423.905057018958,425.260307404752,426.615875215685,427.971765228651
192.236209939613,193.615213536224,194.993718113338,196.371725046369,197.749235800451,199.126251928547,200.502775071767,201.878806957731,203.254349400896,204.629404299138,206.003973634731,207.378059473565,208.751663960957,210.124789326487,211.497437875501,212.869611994587,214.241314148573,215.612546875558,216.983312792337,218.353614588723,219.723455027796,221.092836946272,222.461763249693,223.830236916631,225.198260992422,226.565838591605,227.932972896748,229.29966715413,230.665924676484,232.031748840905,233.397143085855,234.762110912683,236.12665588378,237.490781620341,238.854491803051,240.217790171134,241.580680518793,242.943166697326,244.305252613584,245.666942226168,247.028239548723,248.389148645428,249.74967363207,251.109818674539,252.469587988064,253.828985835128,255.188016526249,256.546684418482,257.904993914245,259.262949460573,260.620555547708,261.977816709203,263.334737520643,264.691322598377,266.047576599488,267.403504220339,268.759110195654,270.114399298961,271.469376338447,272.824046160992,274.178413648025,275.532483715053,276.886261311213,278.239751419689,279.592959055335,280.945889264713,282.298547124745,283.650937742577,285.003066254273,286.354937826394,287.706557650379,289.057930946757,290.40906296148,291.759958967389,293.110624260849,294.461064163545,295.811284020693,297.161289200354,298.511085092808,299.860677110461,301.210070685717,302.559271272017,303.908284343237,305.257115390672,306.6057699252,307.954253474901,309.302571585952,310.65072981937,311.998733754036,313.346588982788,314.694301114538,316.04187577054,317.389318586796,318.736635212191,320.083831307275,321.430912545335,322.777884609665,324.124753195278,325.471524006325,326.818202757529,328.164795170478,329.51130697731,330.857743916336,332.20411173405,333.550416183066,334.896663021807,336.242858014743,337.589006930929,338.935115544079,340.281189631414,341.627234973615,342.973257354185,344.319262558487,345.665256373889,347.011244588613,348.357232991469,349.703227371271,351.049233516235,352.395257213406,353.74130424843,355.087380404105,356.433491461453,357.779643197273,359.125841384988,360.472091793382,361.818400186381,363.164772322127,364.511213953317,365.857730825049,367.204328676028,368.551013236759,369.897790230091,371.24466536841,372.591644356145,373.93873288713,375.285936644908,376.633261300595,377.980712514806,379.328295935893,380.676017197716,382.023881922396,383.371895716848,384.720064172896,386.068392868842,387.416887364128,388.765553204054,390.114395915892,391.463421008778,392.812633973505,394.162040281983,395.511645386662,396.861454718515,398.211473688644,399.561707685759,400.912162077112,402.262842205197,403.613753390942,404.964900928944,406.316290090605,407.667926119842,409.019814235093,410.371959627435,411.724367460329,413.077042868459,414.429990956197,415.783216799455,417.13672544282,418.490521898269,419.844611147463,421.198998137071,422.553687780758,423.908684958062,425.263994511856,426.619621249661,427.975569941779
192.229580076912,193.608621355418,194.987164211405,196.365210014587,197.742760220991,199.119816377858,200.496380119145,201.872453165857,203.248037324661,204.623134487168,205.997746627894,207.371875805938,208.745524160669,210.118693912814,211.491387362053,212.86360688857,214.235354947342,215.606634073684,216.977446874361,218.347796033283,219.717684307382,221.087114524977,222.456089586872,223.824612462849,225.192686193527,226.560313886082,227.927498715108,229.294243922058,230.660552813081,232.026428757377,233.391875188313,234.756895600081,236.121493549119,237.485672650028,238.849436577473,240.212789063483,241.575733898276,242.938274925163,244.300416044964,245.662161210917,247.023514430777,248.384479762455,249.745061315601,251.105263250868,252.465089776795,253.824545150987,255.18363367843,256.542359710034,257.90072764224,259.258741916872,260.616407018798,261.973727476104,263.330707858611,264.687352778404,266.043666885696,267.399654872479,268.755321468085,270.110671440265,271.465709593175,272.820440768111,274.174869840609,275.529001722185,276.882841356683,278.23639372273,279.589663829514,280.942656718585,282.295377463083,283.647831164997,285.000022955977,286.351957996033,287.703641474148,289.055078605196,290.406274630008,291.757234817759,293.10796446049,294.458468874514,295.808753401064,297.158823403682,298.508684268551,299.858341402185,301.207800234824,302.557066214397,303.906144810102,305.255041509436,306.603761819541,307.952311263771,309.300695383876,310.648919737056,311.996989898224,313.34491145579,314.692690013971,316.040331190788,317.387840618065,318.735223939849,320.08248681367,321.429634908563,322.776673903563,324.123609489518,325.470447367094,326.817193246302,328.163852845985,329.510431893481,330.856936123514,332.203371278126,333.549743106577,334.896057363443,336.242319808982,337.588536208498,338.934712331798,340.280853952375,341.626966846879,342.973056794941,344.31912957833,345.665190980273,347.011246785317,348.357302778362,349.703364744323,351.049438467685,352.395529731631,353.741644317797,355.087788005466,356.433966571177,357.780185788498,359.126451426593,360.47276925063,361.819145020446,363.165584490468,364.512093409267,365.858677518472,367.205342552213,368.552094237633,369.898938292775,371.245880427413,372.592926341118,373.940081723665,375.287352254739,376.634743601943,377.982261421219,379.329911356975,380.677699039343,382.02563008622,383.373710100071,384.721944669125,386.070339366172,387.418899748622,388.767631356379,390.116539711791,391.465630321287,392.814908670146,394.164380226862,395.514050438725,396.863924733169,398.214008516384,399.564307172489,400.914826064453,402.265570531408,403.616545887992,404.967757425193,406.31921040967,407.670910081087,409.022861652747,410.375070311421,411.727541215583,413.080279494223,414.433290249393,415.786578549863,417.140149435902,418.49400791604,419.848158964836,421.202607525378,422.557358505989,423.912416780488,425.267787187746,426.623474529322,427.979483570314
192.222767673573,193.601847632561,194.980429784014,196.3585154893,197.736106198401,199.113203450831,200.489808873406,201.865924180226,203.2415511707,204.616691728968,205.991347822464,207.365521503377,208.73921490264,210.11243023564,211.485169794023,212.857435949845,214.229231153242,215.600557929789,216.971418881292,218.341816683651,219.711754087242,221.081233912455,222.450259054183,223.8188324749,225.186957208171,226.554636354145,227.921873082051,229.28867062491,230.655032282328,232.020961417649,233.386461456645,234.751535887983,236.116188260828,237.480422183594,238.844241324406,240.207649409118,241.570650220822,242.93324759733,244.295445433465,245.657247675169,247.018658324605,248.379681433721,249.74032110621,251.100581496275,252.460466806416,253.819981289087,255.179129242742,256.53791501241,257.896342989294,259.254417608945,260.612143351071,261.969524738097,263.326566334095,264.683272744809,266.03964861659,267.395698634502,268.751427523746,270.106840045782,271.461940999383,272.816735221666,274.171227582181,275.525422987046,276.879326375757,278.232942720655,279.586277027006,280.939334331464,282.292119701107,283.644638233903,284.996895055677,286.348895323068,287.700644218433,289.052146953087,290.40340876372,291.754434913253,293.105230689346,294.455801404872,295.806152395011,297.156289019734,298.506216659319,299.855940717983,301.205466619362,302.554799807861,303.903945748466,305.252909924238,306.601697836985,307.950315006944,309.29876697031,310.647059281506,311.995197509775,313.343187240062,314.691034071737,316.038743619521,317.386321509482,318.733773383944,320.081104893969,321.428321705353,322.77542949307,324.122433943986,325.469340754269,326.816155630217,328.162884286413,329.509532445912,330.856105839778,332.202610206059,333.549051289854,334.895434841492,336.241766617434,337.588052379201,338.934297892353,340.280508926385,341.626691254112,342.972850651203,344.31899289528,345.665123765786,347.011249043188,348.357374508462,349.703505942621,351.049649126072,352.395809838029,353.741993856161,355.088206955988,356.434454910009,357.780743487619,359.127078453911,360.473465570213,361.819910592669,363.166419271353,364.51299735085,365.859650568451,367.20638465494,368.553205333107,369.900118316802,371.247129311731,372.594244012998,373.941468107443,375.288807269293,376.636267162543,377.98385343981,379.331571739768,380.679427690052,382.02742690259,383.37557497663,384.723877495671,386.072340029261,387.420968129169,388.769767331309,390.118743155057,391.467901100152,392.817246649387,394.166785266226,395.516522392349,396.866463452231,398.216613847385,399.566978956962,400.917564139135,402.268374728473,403.619416035878,404.970693346952,406.322211922464,407.673976999771,409.025993785717,410.378267462801,411.730803183804,413.0836060752,414.436681230677,415.790033717008,417.143668568485,418.497590787016,419.851805344295,421.206317177285,422.561131189072,423.916252248742,425.271685189295,426.62743480696,427.983505862909
192.215773298465,193.594892930408,194.973515387061,196.351642021347,197.729274276592,199.106413685506,200.483061866364,201.859220526829,203.234891457338,204.610076536649,205.984777724371,207.358997064225,208.732736681385,210.105998781412,211.4787856515,212.851099654428,214.222943233675,215.594318907133,216.965229270555,218.335676990683,219.705664811599,221.07519554727,222.444272084521,223.812897379038,225.181074456794,226.548806412204,227.91609640564,229.282947664671,230.649363481491,232.015347212847,233.380902277593,234.7460321572,236.11074039405,237.475030590746,238.838906408197,240.202371565924,241.565429839913,242.92808506213,244.29034112037,245.652201955613,247.013671561843,248.374753985609,249.735453324199,251.095773726016,252.455719387554,253.815294554104,255.174503518704,256.533350621192,257.891840245429,259.249976822144,260.607764824623,261.965208769652,263.32231321554,264.67908276301,266.035522051602,267.391635762031,268.747428612289,270.102905360143,271.458070798469,272.812929757855,274.167487103431,275.521747735897,276.875716589316,278.229398631391,279.582798860982,280.935922310472,282.288774041691,283.641359146889,284.99368274834,286.345749996328,287.697566069266,289.049136172155,290.400465538122,291.751559424391,293.102423114734,294.453061916363,295.803481160439,297.15368620066,298.503682414864,299.853475201818,301.203069979467,302.552472189225,303.901687290294,305.250720761499,306.59957810042,307.948264822357,309.296786460094,310.645148562144,311.993356694539,313.341416436939,314.689333386068,316.0371131496,317.384761352065,318.732283629054,320.079685629419,321.426973013199,322.774151451805,324.121226627793,325.468204233031,326.815089969436,328.161889548101,329.508608687136,330.855253113837,332.201828562213,333.548340772739,334.894795492081,336.241198472452,337.58755547133,338.933872249824,340.28015457354,341.626408211478,342.972638934829,344.318852517323,345.665054734299,347.011251362096,348.357448177641,349.703650957838,351.049865479047,352.396097516383,353.742352843521,355.088637231625,356.434956449293,357.78131626176,359.127722430371,360.474180711968,361.82069685832,363.167276615826,364.513925724852,365.860649918608,367.207454923478,368.55434645828,369.901330232482,371.248411947398,372.595597295117,373.942891956697,375.29030160316,376.637831893403,377.985488476558,379.333276986847,380.681203046395,382.029272264748,383.377490235465,384.725862538538,386.074394737998,387.423092382365,388.771961002675,390.12100611281,391.470233209747,392.819647770402,394.169255254141,395.519061098727,396.869070723189,398.219289523891,399.569722876103,400.920376134131,402.271254625987,403.622363658323,404.973708512482,406.325294444979,407.677126686147,409.029210439886,410.381550882823,411.734153163493,413.087022402176,414.440163689091,415.793582083893,417.147282616608,418.501270285503,419.855550054752,421.210126856459,422.565005589409,423.920191116679,425.275688265558,426.631501827887,427.987636558007
192.208597537145,193.587757828724,194.966421593005,196.344590176619,197.722265015653,199.099447633631,200.476139643736,201.852342743832,203.22805871913,204.603289437838,205.978036853714,207.352303003257,208.726090003346,210.099400052797,211.472235429402,212.844598490917,214.216491671668,215.587917482376,216.958878511043,218.329377418312,219.699416938667,221.068999881336,222.438129123381,223.806807614219,225.175038373588,226.542824486733,227.910169107887,229.277075457837,230.643546821125,232.009586547228,233.37519804868,234.740384799545,236.105150335331,237.46949825229,238.83343220372,240.196955902844,241.560073119065,242.922787677813,244.285103459482,245.647024398648,247.008554483683,248.369697754031,249.730458301162,251.090840265587,252.450847839259,253.81048526038,255.169756815709,256.52866683938,257.887219709239,259.245419849188,260.603271727176,261.960779853785,263.317948781791,264.674783105116,266.031287458763,267.387466516827,268.743324992387,270.098867636486,271.454099237226,272.809024619137,274.163648642197,275.51797620149,276.872012225843,278.225761676616,279.579229548857,280.932420868759,282.285340692827,283.637994109024,284.990386232815,286.342522210559,287.694407214981,289.046046447255,290.397445133889,291.748608528003,293.099541907944,294.450250576016,295.800739859046,297.151015106333,298.501081689233,299.850945002335,301.200610460444,302.550083498203,303.899369570807,305.248474152581,306.597402736587,307.946160833026,309.294753970844,310.643187693576,311.991467562373,313.339599153529,314.68758805705,316.035439878349,317.383160237019,318.730754764046,320.078229103432,321.425588911206,322.772839854658,324.119987611513,325.467037869969,326.813996326951,328.160868689294,329.507660671237,330.854377995534,332.201026392118,333.547611596973,334.89413935264,336.240615407185,337.587045513441,338.933435428857,340.279790914647,341.626117735375,342.972421658218,344.318708452686,345.66498388985,347.011253741905,348.357523781586,349.703799781575,351.050087514015,352.39639274994,353.742721258662,355.08907880722,356.435471160031,357.781904078083,359.12838331847,360.474914633679,361.821503771572,363.168156474084,364.514878477259,365.861675509926,367.208553294995,368.555517545827,369.902573968446,371.249728259685,372.596986107054,373.94435318717,375.291835166987,376.639437701174,377.987166433788,379.335026995444,380.683025003585,382.031166063024,383.379455762869,384.727899678771,386.076503370752,387.425272381256,388.774212237765,390.123328449876,391.472626509438,392.822111888371,394.171790042062,395.521666403558,396.87174638611,398.222035382496,399.572538763192,400.923261875875,402.27421004583,403.625388574041,404.976802736961,406.32845778537,407.680358945838,409.032511415743,410.384920367745,411.737590945169,413.090528261987,414.443737404628,415.797223427263,417.150991353833,418.505046177327,419.859392857463,421.214036320537,422.568981459344,423.924233131626,425.27979615952,426.635675329247,427.991875388586
192.201240993201,193.580442922689,194.959148991119,196.337360537788,197.715078990287,199.092305865364,200.46904276774,201.845291388021,203.221053503119,204.596330974091,205.971125746717,207.345439849767,208.719275392023,210.092634564823,211.465519638834,212.837932962483,214.209876963675,215.581354145504,216.952367087462,218.32291844302,219.693010940086,221.062647378236,222.431830629165,223.800563633344,225.16884940309,226.536691017886,227.904091622651,229.271054431497,230.63758272189,232.003679836346,233.369349179141,234.734594218803,236.099418482955,237.463825559751,238.827819097258,240.191402800563,241.55458043255,242.917355812107,244.27973281245,245.641715362148,247.003307442075,248.364513085062,249.725336375841,251.08578144968,252.445852490767,253.805553731586,255.164889451995,256.523863980033,257.882481687495,259.240746992192,260.598664355147,261.956238281711,263.313473318037,264.670374052268,266.026945113443,267.383191169964,268.739116928396,270.094727134477,271.450026570931,272.805020055303,274.159712443466,275.514108623585,276.868213519599,278.222032087559,279.575569316416,280.928830226845,282.281819870536,283.6345433296,284.987005714861,286.339212166635,287.691167852707,289.042877968907,290.394347736976,291.745582404786,293.096587245247,294.447367556074,295.797928658781,297.148275897867,298.498414639717,299.84835027419,301.19808821017,302.547633878482,303.896992729618,305.246170232792,306.595171876124,307.944003165555,309.292669624623,310.641176792734,311.989530225874,313.33773549619,314.685798189405,316.033723905896,317.381518260133,318.729186878938,320.076735402631,321.424169481946,322.77149477931,324.118716968725,325.465841733797,326.812874766836,328.159821770197,329.506688454065,330.853480536597,332.200203743051,333.546863805284,334.893466461727,336.240017455628,337.586522535864,338.932987455421,340.279417970897,341.625819842877,342.972198834061,344.318560709737,345.664911236568,347.011256182477,348.357601315856,349.703952405125,351.050315218049,352.396695521311,353.743099079982,355.089531656915,356.435999011881,357.782506901732,359.129061079105,360.475667292368,361.822331284789,363.169058793937,364.515855551653,365.862727282638,367.209679704666,368.556718526995,369.903849451547,371.251078170596,372.598410366646,373.945851712945,375.293407871093,376.641084491226,377.988887213177,379.336821662941,380.684893453484,382.033108184529,383.381471441598,384.729988795054,386.078665799573,387.427507994313,388.776520901784,390.125710025723,391.475080854116,392.824638854663,394.174389476472,395.524338148009,396.874490279032,398.224851256302,399.575426445296,400.926221188973,402.277240807949,403.628490597143,404.979975828481,406.331701748337,407.683673577112,409.035896507642,410.388375706682,411.741116312521,413.094123434472,414.447402152817,415.800957516219,417.154794544325,418.508918223502,419.863333507976,421.218045318963,422.573058543472,423.92837803367,425.284008605755,426.639955039798,427.99622207867
192.193704284776,193.572948824648,194.951698186521,196.329953702683,197.707716792277,199.084988964628,200.461771815995,201.838067029658,203.213876374212,204.589201703229,205.964044954273,207.338408147055,208.712293384162,210.085702847921,211.458638801298,212.831103585461,214.203099619699,215.574629399545,216.945695496473,218.316300556391,219.686447299398,221.056138517344,222.425377073196,223.794165901507,225.162508005862,226.530406457537,227.897864395616,229.264885025895,230.631471617853,231.997627507241,233.3633560912,234.728660829763,236.09354524431,237.458012915548,238.822067485012,240.185712649315,241.548952165327,242.911789844371,244.27422955312,245.636275212869,246.997930797225,248.359200333781,249.720087899221,251.080597622295,252.440733680661,253.800500300133,255.159901754975,256.518942364612,257.877626496805,259.2359585615,260.593943014152,261.951584353054,263.308887118727,264.665855893251,266.022495299266,267.378809998856,268.734804693206,270.090484121868,271.445853061117,272.800916323793,274.155678758506,275.510145249,276.864320712433,278.218210099617,279.571818394033,280.925150610928,282.278211795437,283.631007025063,284.98354140526,286.335820070188,287.687848183169,289.039630933948,290.391173539309,291.742481241616,293.093559309258,294.444413033648,295.795047731968,297.145468743143,298.495681429289,299.845691174105,301.195503382267,302.545123479529,303.89455691123,305.243809141644,306.592885654093,307.941791949568,309.290533546552,310.639115979991,311.987544801498,313.335825577433,314.683963889463,316.031965333576,317.379835518609,318.727580067602,320.075204615402,321.422714808369,322.770116305241,324.117414774604,325.464615894944,326.811725355286,328.158748852598,329.505692092913,330.852560789481,332.199360663441,333.5460974419,334.892776858752,336.239404653164,337.585986569188,338.932528355397,340.279035764225,341.62551455141,342.971970475519,344.318409297163,345.664836778744,347.011258683667,348.357680775933,349.704108819468,351.050548577705,352.397005812876,353.743486285541,355.089995754018,356.436539973856,357.783124697296,359.129755672571,360.47643864386,361.823179349467,363.169983522716,364.516856891018,365.86380517455,367.210834085999,368.55794933111,369.90515660636,371.252461599954,372.599869989951,373.947387444544,375.295019620691,376.64277216512,377.990650711351,379.338660881198,380.686808283545,382.035098513052,383.383537150394,384.732129761026,386.080881895334,387.42979908728,388.778886854502,390.128150696262,391.47759609574,392.827228514723,394.177053398143,395.527076170326,396.877302234257,398.227736972272,399.578385745146,400.929253890875,402.280346724078,403.631669535263,404.983227591036,406.33502613192,407.687070373494,409.039365503466,410.391916683113,411.744729044721,413.097807693047,414.451157701582,415.804784115208,417.158691946335,418.512886176203,419.867371753735,421.222153594488,422.577236579183,423.932625554293,425.288325330297,426.644340681428,428.000676344727
192.185988048466,193.565276163007,194.944069801302,196.322370285865,197.700179029571,199.07749753245,200.454327382452,201.830670255756,203.206527911846,204.581902197111,205.956795040299,207.33120845389,208.705144531306,210.078605447767,211.451593456463,212.824110892089,214.196160165083,215.567743762847,216.938864249529,218.309524262834,219.679726514227,221.049473788235,222.418768940057,223.787614895416,225.156014651444,226.523971270873,227.891487885082,229.258567692186,230.625213954556,231.991429999321,233.357219216484,234.722585059158,236.087531040859,237.452060734881,238.816177774533,240.179885851161,241.543188712538,242.90609016403,244.268594064547,245.630704328016,246.992424922376,248.353759865887,249.71471323058,251.075289136971,252.435491756838,253.795325308939,255.154794059994,256.513902324491,257.87265446194,259.231054876435,260.589108016947,261.94681837599,263.304190486419,264.661228924984,266.017938307358,267.374323289956,268.73038856775,270.086138873569,271.441578978188,272.796713688468,274.151547846928,275.506086331041,276.860334052531,278.214295956464,279.567977020056,280.921382252729,282.274516695446,283.627385417936,284.979993521277,286.332346134199,287.684448413257,289.036305544397,290.38792273767,291.739305230886,293.090458286036,294.441387190654,295.792097255787,297.142593815044,298.492882225436,299.842967865118,301.19285613492,302.542552453955,303.892062263037,305.241391021559,306.590544208068,307.939527317848,309.288345865214,310.637005379788,311.985511408009,313.333869511544,314.682085267766,316.030164266523,317.378112113188,318.725934425338,320.073636832936,321.421224978211,322.7687045147,324.116081106377,325.463360426758,326.810548160597,328.157650000366,329.504671646476,330.851618808768,332.198497202832,333.545312551739,334.892070584461,336.23877703585,337.585437644982,338.932058156111,340.278644317074,341.625201878944,342.971736595888,344.318254223855,345.664760520723,347.011261245329,348.35776215713,349.704269015506,351.050787579302,352.397323606252,353.743882852285,355.090471071266,356.437094014161,357.783757428691,359.130467058188,360.47722864247,361.82404791536,363.170930605602,364.517882435396,365.864909120859,367.212016370428,368.559209884526,369.906495355381,371.253878465712,372.601364889742,373.948960290514,375.296670320627,376.644500621497,377.992456822447,379.340544540458,380.688769379295,382.037136928645,383.385652764647,384.734322448193,386.083151523751,387.432145521535,388.781309953427,390.130650314015,391.480172080418,392.829880711283,394.179781645207,395.529880301538,396.880182078464,398.230692352859,399.581416480388,400.932359793786,402.283527602468,403.634925191338,404.986557821844,406.338430729411,407.690549122955,409.042918186364,410.395543074117,411.748428914131,413.101580804028,414.455003813167,415.808702979419,417.162683310439,418.516949781501,419.871507335893,421.226360882373,422.581515296455,423.936975418363,425.292746053095,426.648831968016,428.005237894209
192.178092936924,193.557425584551,194.936264473721,196.314610919174,197.692466325586,199.069832184812,200.446710076492,201.823101668041,203.199008711776,204.574433044406,205.949376587629,207.323841344009,208.697829400342,210.071342922477,211.444384156156,212.816955426961,214.189059137698,215.560697767099,216.931873871923,218.302590079984,219.672849095528,221.042653695526,222.412006726845,223.780911107433,225.149369824978,226.517385935337,227.884962562297,229.252102895213,230.618810188845,231.985087763199,233.350939000464,234.716367345403,236.081376303899,237.445969442318,238.810150385911,240.173922818579,241.537290481769,242.900257171269,244.262826740389,245.62500309588,246.986790197131,248.348192057167,249.709212738932,251.069856357742,252.430127076644,253.790029108519,255.149566713585,256.508744198652,257.867565916479,259.226036265225,260.584159686798,261.941940666129,263.299383731677,264.656493452064,266.01327443723,267.369731336733,268.725868839222,270.081691672116,271.437204599033,272.792412421086,274.14731997429,275.501932130223,276.856253795235,278.210289907399,279.564045438789,280.917525392674,282.270734803886,283.623678737015,284.97636228614,286.328790575848,287.680968756728,289.03290200764,290.384595534879,291.736054569373,293.087284368849,294.438290214377,295.789077411813,297.139651289812,298.490017199172,299.84018051446,301.190146628814,302.539920958234,303.889508937153,305.238916020224,306.588147680352,307.937209408378,309.286106713118,310.634845119186,311.983430168151,313.331867416643,314.68016243617,316.028320813081,317.376348147023,318.724250050658,320.072032149189,321.419700080183,322.767259491643,324.114716043077,325.46207540373,326.809343252956,328.156525277877,329.503627175863,330.850654650459,332.197613412863,333.544509181523,334.891347680891,336.238134640735,337.584875795739,338.931576885306,340.278243652577,341.624881844114,342.97149720911,344.318095499026,345.664682467029,347.01126386731,348.357845454614,349.704432983726,351.051032208694,352.397648882651,353.744288756959,355.090957580438,356.4376611,357.784405057996,359.131195193528,360.478037241393,361.824936930913,363.171899986163,364.518932124482,365.866039057213,367.213226487932,368.56050011245,369.907865618166,371.255328683468,372.602894976714,373.950570156903,375.2983598718,376.646269757619,377.994305438955,379.342472527452,380.690776622663,382.039223308802,383.387818157273,384.736566723768,386.085474547778,387.434547154367,388.783790050424,390.133208725339,391.48280865192,392.832595282286,394.182574050253,395.532750370004,396.883129634933,398.233717215976,399.584518463768,400.935538705428,402.286783245013,403.638257362097,404.989966312453,406.341915326415,407.694109607011,409.046554332069,410.39925465123,411.752215686023,413.105442528374,414.458940242479,415.81271385967,417.16676838214,418.52110877917,419.875739987633,421.230666910619,422.585894417858,423.941427343119,425.297270485093,426.653428605282,428.009906428399
192.170019619605,193.549397751094,194.928282858866,196.306676249975,197.684579320621,199.061993554316,200.438920523058,201.815361884796,203.191319383659,204.566794848008,205.941790190686,207.316307406496,208.69034857296,210.063915847072,211.43701146772,212.80963775104,214.181797090958,215.553491958156,216.92472490089,218.295498538856,219.665815568864,221.035678757496,222.405090944379,223.774055039318,225.142574022535,226.510650940823,227.878288909677,229.245491110773,230.612260791557,231.978601262911,233.34451589878,234.710008137482,236.0750814765,237.439739474356,238.803985748569,240.167823976024,241.531257888977,242.894291276645,244.256927985659,245.619171914161,246.981027014604,248.34249729284,249.703586804461,251.064299656967,252.424640007433,253.784612060564,255.144220070422,256.503468335741,257.862361203599,259.22090306452,260.57909835385,261.936951549887,263.294467173909,264.651649788093,266.008503996163,267.365034440982,268.721245804471,270.077142807304,271.432730208404,272.788012800117,274.142995414002,275.49768291512,276.852080202644,278.206192209502,279.560023901589,280.913580276182,282.266866361437,283.619887216287,284.972647930104,286.325153619429,287.677409430862,289.029420537081,290.381192138502,291.732729460211,293.084037754516,294.435122296531,295.785988387258,297.136641349374,298.487086528506,299.837329292925,301.187375031269,302.537229153793,303.886897089927,305.236384288562,306.585696217188,307.93483836223,309.283816226224,310.632635329352,311.98130120771,313.329819412744,314.678195511528,316.026435084416,317.374543726283,318.722527044872,320.070390660576,321.418140205317,322.765781322685,324.113319667092,325.460760902715,326.808110703901,328.15537475348,329.502558742716,330.849668371448,332.196709345675,333.543687379095,334.890608190859,336.237477506128,337.584301054895,338.931084571583,340.277833794663,341.6245544658,342.971252329355,344.317933132101,345.664602622306,347.011266549457,348.357930663477,349.704600714306,351.051282451357,352.397981622835,353.744703975232,355.09145525291,356.43824119747,357.785067546796,359.13194003532,360.478864392743,361.825846343306,363.172891606643,364.520005895181,365.867194915528,367.214464366197,368.561819937746,369.90926731332,371.256812165817,372.604460159303,373.952216947401,375.300088172558,376.648079466511,377.996196448636,379.344444725886,380.69282989188,382.041357526973,383.390033196199,384.73886245095,386.087850825661,387.437003839245,388.786326994456,390.135825775004,391.485505647926,392.835372060386,394.185430441484,395.535686198972,396.88614472162,398.236811374749,399.587691503019,400.938790428266,402.290113449534,403.641665839957,404.99345285059,406.345479704955,407.69775160147,409.050273711786,410.403051179258,411.756089119946,413.109392620506,414.46296673781,415.816816498924,417.170946898376,418.525362900579,419.880069435331,421.235071400487,422.59037365873,423.945981038077,425.301898330467,426.658130291452,428.014681638876
