207.586412226698,207.572016339812,207.558301593127,207.545228104773,207.532758278335,207.520856666893,207.509489845599,207.498626292503,207.48823627693,207.478291754642,207.468766269836,207.459634863019,207.450873984737,207.442461414435,207.434376184481,207.42659850865,207.419109715013,207.411892182889,207.40492928351,207.398205324267,207.3917054963,207.385415825087,207.379323124102,207.37341495095,207.367679566325,207.362105895138,207.356683490015,207.351402496832,207.346253622278,207.341228103187,207.33631767772,207.331514558064,207.326811404789,207.322201302516,207.317677737054,207.313234573769,207.308866037124,207.30456669141,207.300331422483,207.296155420548,207.292034163873,207.287963403363,207.283939147974,207.279957651012,207.276015397035,207.272109089519,207.268235639226,207.264392153163,207.260575924101,207.256784420624,207.253015277899,207.249266288659,207.245535394889,207.241820679739,207.238120360202,207.234432779656,207.230756401379,207.227089801918,207.223431665112,207.21978077627,207.216136016731,207.212496358643,207.208860860028,207.205228660153,207.201598975117,207.197971093594,207.194344372872,207.190718235071,207.187092163574,207.183465699614,207.17983843903,207.176210029214,207.172580166171,207.168948591911,207.165315091539,207.161679491098,207.158041654905,207.154401483558,207.150758911649,207.147113905894,207.143466463016,207.139816608116,207.136164392829,207.132509893774,207.128853210896,207.125194466135,207.121533801837,207.117871379607,207.114207378952,207.110541996081,207.106875442841,207.103207945527,207.099539743965,207.095871090467,207.092202249029,207.088533494335,207.084865110899,207.081197392439,207.077530641081,207.073865166545,207.070201285582,207.066539321339,207.062879602754,207.059222463955,207.055568243704,207.051917284969,207.048269934454,207.044626541981,207.040987460239,207.037353044335,207.033723651296,207.030099639852,207.026481370105,207.022869202983,207.019263500168,207.015664623735,207.012072935896,207.008488798585,207.004912573562,207.001344621809,206.997785303536,206.994234977917,206.990694002926,206.987162735157,206.983641529631,206.980130739655,206.976630716694,206.973141810169,206.969664367459,206.966198733692,206.962745251536,206.959304261374,206.955876100941,206.952461105354,206.949059607053,206.945671935566,206.942298417752,206.938939377395,206.935595135365,206.932266009468,206.928952314359,206.925654361769,206.922372460025,206.919106914355,206.915858026871,206.912626096112,206.909411417691,206.906214283647,206.903034982726,206.899873800475,206.896731018906,206.893606916839,206.890501769666,206.887415849182,206.884349424229,206.881302759893,206.878276117859,206.875269756943,206.872283931942,206.86931889464,206.866374893416,206.863452173386,206.860550975935,206.857671539715,206.854814099554,206.851978887122,206.849166131098,206.846376056405,206.843608885014,206.8408648357,206.838144123714,206.835446961509,206.832773558008,206.830124119284,206.827498847914
208.985660341152,208.970349268481,208.955763034144,208.94185920938,208.928597796814,208.915941085767,208.903853516792,208.892301554777,208.881253570174,208.870679727511,208.860551881092,208.850843477006,208.841529461273,208.832586193645,208.82399136665,208.815723929576,208.807764017061,208.800092882011,208.792692832481,208.785547172368,208.778640145646,208.771956883846,208.765483356613,208.759206325304,208.753113299046,208.747192493561,208.741432792301,208.73582370977,208.730355356982,208.725018408939,208.719804073867,208.714704064271,208.709710569558,208.704816230266,208.700014113669,208.695297690761,208.690660814542,208.686097699523,208.681602902235,208.677171303002,208.672798088506,208.668478735514,208.664208995297,208.659984879013,208.655802643843,208.65165877987,208.647549997667,208.643473216555,208.639425553469,208.635404312482,208.631406974713,208.627431189045,208.623474763039,208.61953565458,208.61561196374,208.611701925266,208.607803901296,208.603916374611,208.600037942056,208.596167308489,208.592303280873,208.588444762873,208.584590749491,208.580740322209,208.576892644175,208.573046955869,208.569202570698,208.565358871129,208.561515304814,208.557671380932,208.553826666808,208.549980784596,208.546133408318,208.542284260687,208.538433110621,208.53457977037,208.530724093078,208.526865970391,208.523005330244,208.519142134664,208.515276377768,208.511408083746,208.507537305195,208.503664121142,208.499788635626,208.495910975966,208.49203129134,208.488149751374,208.484266544763,208.480381878017,208.476495974305,208.472609072201,208.468721424681,208.464833298106,208.460944971169,208.457056733994,208.453168887304,208.449281741514,208.445395616051,208.44151083847,208.437627743777,208.433746673925,208.429867976816,208.425992006148,208.42211912052,208.418249682976,208.414384060487,208.410522623543,208.406665745615,208.402813802709,208.398967173076,208.395126236601,208.391291374756,208.387462969944,208.38364140532,208.379827064556,208.376020331351,208.372221589398,208.3684312219,208.364649611471,208.360877139884,208.357114187834,208.353361134718,208.3496183585,208.345886235561,208.342165140368,208.338455445487,208.334757521435,208.331071736401,208.327398456316,208.323738044534,208.320090861882,208.316457266465,208.312837613665,208.309232255913,208.305641542746,208.302065820595,208.298505432946,208.294960719969,208.291432018767,208.287919663045,208.284423983282,208.280945306518,208.27748395656,208.274040253611,208.270614514567,208.267207052617,208.263818177844,208.260448196314,208.257097410977,208.253766120995,208.2504546219,208.247163205981,208.243892161597,208.240641773626,208.237412323468,208.234204088911,208.231017344037,208.227852359425,208.224709402179,208.221588735669,208.218490619936,208.215415311093,208.212363062296,208.209334122636,208.206328738074,208.203347150859,208.200389599817,208.19745632044,208.194547544789,208.191663501334,208.188804415212,208.185970508324,208.18316199919,208.180379102787
210.385091309529,210.368856985716,210.35339165031,210.338650303272,210.324590523314,210.311172314362,210.298357961925,210.286111898404,210.274400577199,210.26319235443,210.252457378289,210.242167485083,210.232296101865,210.222818154965,210.213709984123,210.204949261901,210.196514917933,210.188387067728,210.180546945797,210.172976842727,210.165660046037,210.158580784439,210.151724175527,210.145076176361,210.138623537081,210.132353757138,210.126255044014,210.120316274473,210.114526957808,210.108877201424,210.103357678169,210.097959595666,210.092674667294,210.087495084804,210.082413492474,210.077422962769,210.072516973237,210.067689384763,210.062934420973,210.058246648852,210.053620960302,210.049052554819,210.044536923025,210.040069831147,210.035647306341,210.031265622734,210.026921288346,210.022611032509,210.018331794134,210.014080710659,210.009855107289,210.005652487084,210.001470521506,209.997307041334,209.993160028229,209.989027606687,209.98490803634,209.980799704679,209.976701120321,209.972610906342,209.968527794219,209.964450617927,209.960378308349,209.956309888147,209.952244466588,209.948181234923,209.94411946191,209.94005848942,209.935997728562,209.931936655723,209.927874808915,209.923811784508,209.919747233632,209.915680859346,209.911612413556,209.90754169428,209.903468542879,209.899392841512,209.895314510997,209.891233508266,209.887149824282,209.883063481937,209.878974534332,209.87488306266,209.870789174521,209.866693002387,209.862594701903,209.858494450337,209.854392445367,209.850288903464,209.846184058893,209.842078162238,209.837971479426,209.833864290487,209.82975688873,209.825649579538,209.821542679551,209.817436515776,209.8133314247,209.809227751561,209.805125849519,209.801026079028,209.79692880708,209.792834406679,209.788743256046,209.784655738215,209.780572240446,209.776493153689,209.772418872084,209.768349792553,209.764286314285,209.760228838467,209.756177767719,209.752133505916,209.748096457589,209.744067027919,209.74004562218,209.73603264553,209.732028502724,209.728033598017,209.724048334546,209.720073114531,209.716108338824,209.712154406728,209.708211715819,209.704280661798,209.700361638366,209.696455037004,209.692561246806,209.688680654347,209.684813643741,209.680960596233,209.677121890317,209.673297901594,209.669489002437,209.665695562359,209.66191794756,209.658156521011,209.654411642285,209.650683667743,209.646972950097,209.643279838649,209.63960467926,209.635947814052,209.632309581581,209.628690316904,209.625090351064,209.621510011787,209.617949622988,209.614409504446,209.610889972784,209.607391340511,209.603913916356,209.600458005395,209.597023908828,209.593611924173,209.590222344988,209.586855461353,209.583511559118,209.580190920777,209.576893825036,209.573620546447,209.570371356264,209.567146521777,209.563946306614,209.560770970793,209.557620770512,209.554495958377,209.551396783337,209.548323490696,209.545276322254,209.542255516117,209.539261306684,209.536293925089,209.533353598946
211.784716558409,211.7675504058,211.751197872025,211.735611359885,211.720745999704,211.706559487052,211.693011930581,211.680065709848,211.667685341765,211.65583735582,211.644490176795,211.633614014963,211.623180763007,211.613163899242,211.603538396933,211.594280638854,211.585368337309,211.576780458788,211.568497153227,211.560499687453,211.55277038266,211.545292555374,211.538050462242,211.531029247686,211.524214894859,211.517594179351,211.511154625595,211.504884465755,211.498772601023,211.492808565055,211.486982489538,211.48128507172,211.4757075437,211.470241643487,211.464879587698,211.459614045783,211.454438115553,211.449345300259,211.444329486796,211.43938492516,211.434506208993,211.429688257235,211.424926296761,211.42021584589,211.415552698876,211.410932911278,211.406352785892,211.40180885969,211.397297891323,211.392816849287,211.388362900782,211.383933401115,211.379525883655,211.375138050374,211.370767762785,211.366413033451,211.36207201793,211.357743007035,211.353424419645,211.349114795777,211.344812790099,211.340517165703,211.336226788235,211.331940620345,211.32765771643,211.323377217539,211.319098346719,211.31482040447,211.310542764403,211.306264869351,211.301986227245,211.297706407802,211.293425038712,211.289141802611,211.28485643382,211.28056871544,211.276278476458,211.271985589117,211.267689966501,211.263391559915,211.259090356688,211.254786378153,211.250479677309,211.246170337056,211.241858468317,211.237544208272,211.233227718621,211.228909184105,211.224588810941,211.220266825368,211.215943472344,211.211619014231,211.207293729614,211.202967912122,211.198641869202,211.19431592146,211.18999040114,211.185665651697,211.181342026466,211.177019888232,211.172699608109,211.168381564959,211.16406614468,211.159753739274,211.155444746705,211.15113956979,211.146838615894,211.142542296373,211.138251025923,211.13396522226,211.129685305529,211.125411697959,211.121144823385,211.116885106961,211.112632974616,211.108388852956,211.104153168651,211.099926348467,211.095708818591,211.09150100468,211.087303331485,211.083116222585,211.078940100227,211.074775384907,211.0706224956,211.066481849146,211.062353860192,211.058238941288,211.054137502373,211.050049950755,211.045976691179,211.041918125304,211.037874651989,211.033846667001,211.029834562821,211.025838728819,211.021859550951,211.017897411659,211.013952690021,211.010025761508,211.006116997989,211.002226767518,210.998355434602,210.99450335993,210.990670900423,210.986858409044,210.983066235088,210.979294723752,210.975544216309,210.971815050363,210.96810755926,210.964422072613,210.960758915935,210.957118410721,210.953500874565,210.949906621184,210.946335959985,210.942789196748,210.939266632996,210.935768566567,210.932295290964,210.928847095989,210.925424267674,210.922027087655,210.918655833943,210.915310780745,210.911992198263,210.908700352623,210.905435506491,210.902197918502,210.898987843616,210.895805532687,210.892651233231,210.889525188945,210.886427639518
213.184547686801,213.166440606418,213.149192284544,213.132752499312,213.117073906827,213.102111869824,213.08782429719,213.074171493732,213.061116019502,213.04862255794,213.036657792165,213.025190289126,213.014190390794,213.003630112116,212.993483045174,212.983724269237,212.974330266238,212.965278841259,212.956549047998,212.948121118467,212.939976397029,212.932097278134,212.924467148053,212.917070329673,212.909892030722,212.902918294942,212.896135956088,212.889532594581,212.883096496625,212.876816615693,212.870682536176,212.864684439085,212.858813069722,212.85305970711,212.847416135198,212.841874615646,212.836427862106,212.831069015863,212.825791623036,212.820589612774,212.815457276768,212.81038924995,212.805380492081,212.800426270443,212.795522143458,212.790663945143,212.78584777046,212.781069961418,212.776327093876,212.771615965159,212.766933582224,212.762277150472,212.757644063221,212.753031891672,212.748438375374,212.743861413236,212.739299055099,212.734749493491,212.730211056139,212.72568219852,212.721161497147,212.716647642944,212.712139435074,212.707635775047,212.703135661232,212.698638183441,212.694142518029,212.689647923072,212.685153733912,212.680659358802,212.67616427492,212.671668024389,212.66717021082,212.662670495696,212.658168594967,212.653664276291,212.649157355673,212.644647694803,212.640135198443,212.635619811784,212.631101518108,212.626580336457,212.622056319467,212.617529551352,212.613000145834,212.608468244438,212.603934014652,212.599397648168,212.594859359496,212.590319384192,212.585777977812,212.581235414095,212.576691984037,212.572147994519,212.567603767132,212.563059637176,212.558515952496,212.553973072629,212.549431367719,212.544891217766,212.540353011721,212.535817146718,212.531284027163,212.52675406438,212.522227675581,212.517705283307,212.513187314991,212.508674202129,212.504166379988,212.499664286889,212.49516836384,212.490679054118,212.486196802596,212.481722055647,212.477255260577,212.472796865198,212.468347317722,212.463907066271,212.459476558514,212.455056241514,212.45064656141,212.446247963188,212.441860890394,212.437485784908,212.43312308678,212.428773234061,212.42443666247,212.420113805378,212.415805093596,212.411510955208,212.407231815489,212.402968096588,212.3987202177,212.394488594744,212.390273640284,212.386075763552,212.381895370125,212.377732862125,212.373588637997,212.369463092364,212.365356616155,212.361269596285,212.357202415992,212.353155454457,212.349129086873,212.345123684301,212.341139613863,212.337177238727,212.333236917621,212.329319005417,212.325423852599,212.321551805905,212.317703207412,212.313878395155,212.310077703357,212.306301461428,212.302549995188,212.298823625812,212.295122670666,212.291447442647,212.287798250703,212.284175399462,212.280579189369,212.277009917254,212.273467875077,212.269953351246,212.266466629767,212.263007990901,212.259577710605,212.256176061037,212.252803310148,212.249459722009,212.246145556842,212.24286107083,212.239606516082
214.584596477078,214.565538839082,214.54738563785,214.53008399784,214.513584073489,214.497838868903,214.482804068797,214.468437880372,214.454700885034,214.441555899723,214.428967846561,214.416903630884,214.405332026732,214.394223569288,214.38355045413,214.373286442364,214.363406771735,214.353888072929,214.344708290992,214.33584661144,214.327283390695,214.319000090719,214.310979217404,214.303204262676,214.295659649924,214.288330682597,214.281203495738,214.274265010414,214.267502890639,214.26090550283,214.254461877604,214.248161673571,214.241995143358,214.235953101477,214.230026893923,214.224208369576,214.218489853076,214.212864119332,214.207324369342,214.201864207316,214.196477619178,214.191158952111,214.185902895248,214.18070446152,214.175558970304,214.170462031156,214.16540952825,214.160397605935,214.155422654711,214.150481298236,214.145570380859,214.140686955876,214.1358282744,214.130991774858,214.126175072877,214.121375951968,214.11659235444,214.11182237289,214.107064242256,214.102316332067,214.097577139185,214.092845281006,214.088119488939,214.083398602135,214.078681561713,214.073967405131,214.069255261014,214.064544343996,214.059833950143,214.055123452275,214.05041229582,214.045699994682,214.040986127388,214.036270333626,214.031552310264,214.026831808768,214.022108631537,214.017382629072,214.012653697258,214.00792177463,214.003186839825,213.998448909139,213.993708034345,213.988964300488,213.984217823667,213.979468749367,213.974717250368,213.969963525067,213.965207795842,213.960450307364,213.955691325233,213.950931134468,213.946170038095,213.941408355992,213.936646423569,213.931884590644,213.927123220412,213.922362688283,213.917603380948,213.912845695525,213.908090038529,213.903336825221,213.898586478472,213.893839428508,213.889096111759,213.884356970414,213.879622451715,213.874893007369,213.870169092885,213.865451167251,213.86073969219,213.85603513182,213.851337952029,213.84664862041,213.841967605342,213.837295376112,213.832632402144,213.827979152846,213.823336097412,213.818703704212,213.814082440747,213.809472773387,213.804875166881,213.800290084407,213.795717987183,213.791159334349,213.786614582625,213.782084186265,213.777568596938,213.773068263428,213.768583631495,213.764115143841,213.759663239926,213.755228355872,213.750810924164,213.746411373971,213.742030130647,213.737667615799,213.733324247191,213.729000438739,213.724696600387,213.720413138024,213.716150453423,213.711908944251,213.707689004059,213.703491022136,213.699315383469,213.695162468833,213.691032654693,213.686926313081,213.682843812029,213.678785514633,213.674751780146,213.670742963305,213.666759414261,213.662801478886,213.658869498906,213.65496381125,213.651084748761,213.647232639913,213.643407808577,213.639610574575,213.635841253094,213.632100155143,213.628387587467,213.624703852607,213.621049248532,213.617424069118,213.613828604143,213.610263138909,213.606727954639,213.603223328563,213.599749533511,213.59630683839,213.592895507758
215.984874906099,215.964856539686,215.94578885672,215.9276162973,215.910286485376,215.893750039137,215.877960393415,215.862873633481,215.848448339323,215.834645439675,215.821428075295,215.808761470638,215.796612813549,215.784951142275,215.773747239567,215.762973533006,215.752604001572,215.742614087757,215.732980614966,215.723681709796,215.714696729119,215.706006191205,215.697591711214,215.689435940143,215.681522507614,215.673835967811,215.666361748646,215.659086103778,215.651996067438,215.645079411786,215.638324606718,215.631720782015,215.625257691438,215.618925679113,215.612715647518,215.606619027463,215.6006277496,215.594734217633,215.588931282908,215.583212220434,215.577570706206,215.572000795782,215.566496904052,215.56105378601,215.55566651867,215.550330483864,215.545041352068,215.539795067046,215.534587831195,215.529416091886,215.524276528412,215.519166039587,215.514081732133,215.509020909486,215.50398106141,215.498959853976,215.493955120157,215.488964850911,215.483987186728,215.479020409511,215.474062935049,215.46911330578,215.46417018392,215.459232344947,215.454298671534,215.449368147638,215.444439852941,215.439512957639,215.434586717453,215.429660468822,215.424733624518,215.41980566927,215.414876155787,215.409944701001,215.405010982195,215.400074733722,215.395135743702,215.390193850841,215.38524894157,215.380300947083,215.375349840823,215.370395635855,215.36543838263,215.360478166366,215.355515105252,215.350549348189,215.34558107287,215.34061048398,215.335637811459,215.330663308617,215.32568725089,215.320709934167,215.315731673188,215.310752800583,215.30577366529,215.300794631488,215.295816077286,215.290838393867,215.285861984268,215.280887262403,215.275914652218,215.270944586823,215.26597750753,215.261013863275,215.25605410945,215.251098707891,215.246148125379,215.241202833656,215.236263308509,215.231330029365,215.226403478558,215.221484141016,215.216572503511,215.211669054681,215.206774284081,215.20188868216,215.197012739588,215.192146947174,215.187291795285,215.182447773676,215.177615371141,215.17279507536,215.167987372295,215.163192746313,215.158411679801,215.153644652894,215.148892143348,215.14415462629,215.139432574152,215.134726456422,215.130036739354,215.125363886172,215.12070835653,215.116070606669,215.111451089323,215.106850253245,215.102268543676,215.097706401617,215.093164264345,215.088642564947,215.084141732408,215.07966219147,215.075204362557,215.070768661867,215.066355501288,215.061965288217,215.057598425595,215.053255311848,215.048936341261,215.04464190306,215.040372382241,215.036128159293,215.031909609984,215.027717105679,215.023551012746,215.019411693719,215.01529950578,215.011214801971,215.00715793051,215.003129235227,214.999129055449,214.995157725696,214.991215576242,214.987302932451,214.9834201156,214.979567442151,214.97574522435,214.97195376976,214.968193381797,214.964464359044,214.960766996366,214.957101583481,214.953468406343,214.949867746331,214.946299880739
217.385395156842,217.36440533945,217.344413051045,217.325360015072,217.30719129452,217.289855092944,217.273302568228,217.257487658182,217.242366917176,217.227899363043,217.214046333673,217.200771352291,217.188040001365,217.175819804105,217.164080113239,217.152792006605,217.141928189137,217.131462900569,217.121371828862,217.111632028826,217.102221845366,217.09312084149,217.084309730487,217.075770311981,217.067485411903,217.059438825816,217.051615265542,217.044000308874,217.036580352242,217.029342565927,217.022274851948,217.015365804337,217.008604671535,217.00198132106,216.995486206016,216.989110333588,216.98284523516,216.976682938209,216.970615939646,216.964637180726,216.958740023234,216.952918227009,216.947165928756,216.941477621837,216.9358481374,216.930272626226,216.92474654189,216.919265624504,216.9138258855,216.908423593301,216.903055259436,216.897717625783,216.892407652251,216.887122505177,216.881859546157,216.876616321924,216.871390554139,216.866180130243,216.860983094536,216.855797639622,216.850622098642,216.845454937478,216.840294747804,216.835140240051,216.829990237119,216.82484366818,216.819699562842,216.814557045693,216.809415331031,216.804273717947,216.799131585498,216.793988388394,216.788843652636,216.783696971509,216.778548001862,216.773396460369,216.768242120025,216.763084807035,216.757924397625,216.752760815254,216.747594027415,216.742424043457,216.737250911811,216.732074717602,216.726895580487,216.721713652315,216.716529115288,216.711342180016,216.706153083444,216.70096208731,216.695769476492,216.690575557226,216.685380655964,216.680185117553,216.67498930428,216.669793594287,216.664598380536,216.659404069575,216.654211080466,216.649019843888,216.643830801044,216.638644402666,216.633461108157,216.628281384937,216.623105707623,216.61793455698,216.612768419582,216.607607787008,216.602453155097,216.597305023621,216.592163895385,216.587030275992,216.581904673137,216.576787596339,216.571679556233,216.566581064237,216.561492632393,216.556414772582,216.551347996507,216.546292815182,216.54124973866,216.536219275732,216.531201933647,216.526198217953,216.521208632043,216.516233677124,216.5112738519,216.506329652339,216.501401571625,216.496490099781,216.491595723817,216.486718927201,216.481860189919,216.477019988389,216.472198795196,216.467397079122,216.462615304944,216.457853933416,216.453113420991,216.448394220087,216.443696778503,216.439021540135,216.434368943974,216.429739424799,216.425133412658,216.420551333107,216.415993607133,216.411460651096,216.40695287631,216.402470689921,216.39801449386,216.393584685663,216.389181657927,216.384805798264,216.380457490119,216.376137111528,216.371845035974,216.367581632273,216.363347264475,216.359142291569,216.35496706792,216.350821943355,216.3467072628,216.342623366343,216.338570589463,216.334549263032,216.330559713195,216.326602261551,216.322677224826,216.318784915291,216.314925640675,216.311099704262,216.307307404466,216.303549035705,216.299824887337
218.786169630049,218.764197076056,218.743269526454,218.72332595402,218.704308828727,218.686163909321,218.668840048274,218.652289009023,218.636465294993,218.621325989158,218.606830603869,218.592940939823,218.579620953938,218.566836635241,218.554555888451,218.542748424647,218.531385658463,218.520440611688,218.509887822462,218.499703259999,218.48986424438,218.480349371024,218.471138439758,218.462212387867,218.453553227126,218.445143984558,218.436968646561,218.429012106172,218.421260113557,218.413699229132,218.406316779458,218.399100815597,218.392040073831,218.385123938577,218.378342407467,218.371686058114,218.365146017105,218.358713930402,218.352381935485,218.346142635061,218.339989072159,218.333914706648,218.327913392885,218.321979358786,218.316107185835,218.310291790329,218.304528405504,218.298812564707,218.293140085374,218.287507053974,218.281909811689,218.276344940799,218.270809251925,218.265299771821,218.259813731904,218.254348557147,218.248901856069,218.243471410576,218.238055166905,218.232651226681,218.227257838631,218.22187339061,218.216496402115,218.211125517135,218.205759497402,218.200397215993,218.195037651224,218.18967988088,218.184323076717,218.178966499334,218.173609493095,218.1682514818,218.162891963632,218.157530507523,218.152166748962,218.146800386011,218.14143117597,218.136058931797,218.130683518908,218.125304852032,218.119922892493,218.114537645075,218.109149155732,218.103757508883,218.098362825098,218.092965258848,218.087564996381,218.08216225363,218.076757274206,218.071350327902,218.065941708597,218.060531732728,218.055120737787,218.049709080874,218.04429713701,218.038885298177,218.033473971768,218.028063579587,218.022654556623,218.017247349871,218.011842417437,218.006440227584,218.001041257777,217.995645993723,217.99025492875,217.98486856279,217.979487401836,217.974111957163,217.96874274458,217.963380283997,217.958025098686,217.952677714813,217.947338660765,217.94200846688,217.936687664677,217.931376786803,217.926076366228,217.920786936052,217.915509029124,217.910243177614,217.90498991284,217.899749764746,217.894523261663,217.88931093033,217.88411329511,217.878930878186,217.873764199234,217.868613775021,217.86348011939,217.858363743136,217.853265153551,217.848184854652,217.843123346608,217.838081126015,217.833058685403,217.828056513476,217.823075094605,217.818114909066,217.813176432751,217.808260137253,217.803366489568,217.7984959521,217.793648982835,217.788826034751,217.784027556658,217.779253991984,217.774505779817,217.769783353943,217.765087143652,217.760417573312,217.755775061989,217.75116002427,217.746572869465,217.742014002219,217.737483821846,217.732982722771,217.728511094702,217.724069322078,217.719657784442,217.715276856476,217.710926907704,217.706608302767,217.702321401609,217.698066558858,217.693844124633,217.689654443787,217.685497856491,217.681374698428,217.677285299692,217.673229986296,217.669209079041,217.665222894219,217.661271743272,217.657355933113,217.653475765909
220.187210956451,220.16424380521,220.142369795185,220.121525112831,220.101649601437,220.08268654325,220.064582455305,220.047286898551,220.030752298754,220.014933778928,219.99978900215,219.985278024127,219.971363155028,219.958008829685,219.945181485904,219.932849449976,219.920982829433,219.90955341202,219.898534570888,219.887901175314,219.877629506948,219.86769718079,219.858083070974,219.84876724084,219.839730877104,219.830956227905,219.822426544271,219.814126025236,219.806039765837,219.798153708221,219.790454595479,219.782929928182,219.775567923266,219.76835747526,219.761288119743,219.754349998762,219.747533828155,219.740830866864,219.734232887681,219.727732149737,219.721321372591,219.714993711532,219.708742734339,219.702562399356,219.696447034555,219.690391318022,219.684390259167,219.678439181172,219.672533704345,219.666669730185,219.660843426572,219.655051213495,219.649289749718,219.6435559199,219.637846822799,219.632159759652,219.626492223425,219.620841888593,219.615206601369,219.609584370522,219.603973358634,219.598371873844,219.592778361874,219.587191398764,219.581609683657,219.576032032143,219.570457369919,219.564884726705,219.559313230575,219.553742102502,219.54817065116,219.542598268037,219.537024423059,219.531448659572,219.525870590789,219.520289895503,219.51470631441,219.509119646428,219.503529745435,219.497936516953,219.492339915083,219.486739939756,219.481136633766,219.475530080201,219.469920400167,219.464307750066,219.458692319643,219.453074329861,219.44745403066,219.44183169924,219.436207638178,219.430582173748,219.424955654144,219.419328448204,219.413700943611,219.408073545793,219.402446676308,219.396820771972,219.391196283149,219.385573673168,219.379953416933,219.374335999853,219.368721917189,219.363111672812,219.357505778609,219.351904753446,219.346309122554,219.340719416807,219.335136171832,219.329559927533,219.323991227524,219.318430618352,219.312878649035,219.307335870568,219.301802835541,219.296280097255,219.290768209862,219.285267727484,219.27977920403,219.274303192929,219.268840246427,219.263390915672,219.257955750146,219.252535297485,219.247130103199,219.24174071036,219.23636765945,219.231011488103,219.225672730811,219.220351918962,219.215049580314,219.209766239243,219.204502416281,219.199258627939,219.194035386915,219.18883320152,219.183652575943,219.178494010045,219.17335799891,219.168245033466,219.163155599645,219.158090178784,219.153049247507,219.148033277595,219.14304273565,219.138078083594,219.133139778479,219.128228271825,219.123344010518,219.118487436216,219.113658985431,219.108859089587,219.104088174699,219.099346662224,219.094634967872,219.089953502365,219.085302671176,219.080682874911,219.076094508524,219.071537962096,219.067013620641,219.06252186375,219.058063065987,219.053637597058,219.04924582101,219.04488809733,219.040564780286,219.036276219038,219.03202275773,219.027804735667,219.023622486882,219.019476341068,219.015366622284,219.011293650097,219.007257739467
221.588532009037,221.56455781235,221.541725587385,221.519968696764,221.499224321869,221.479433235111,221.460539586817,221.442490705775,221.425236912165,221.408731342672,221.392929786203,221.377790529951,221.363274215096,221.349343701289,221.335963939503,221.323101852588,221.310726223111,221.298807588,221.287318139485,221.276231631899,221.265523294181,221.255169747372,221.245148927173,221.235440010857,221.226023348621,221.216880398734,221.207993666692,221.199346647632,221.190923772195,221.182710355438,221.174692548672,221.166857294038,221.159192281565,221.151685908771,221.14432724243,221.137105982477,221.130012428034,221.123037445111,221.116172436255,221.109409311857,221.102740462963,221.09615873555,221.089657406339,221.083230159762,221.076871066304,221.070574561816,221.064335428289,221.058148775274,221.052010022509,221.045914883419,221.039859349586,221.033839675739,221.027852366056,221.021894160657,221.015962023041,221.010053128319,221.004164851736,220.998294758163,220.99244059175,220.986600266509,220.98077185703,220.974953589909,220.969143835535,220.963341100327,220.957544019355,220.951751349267,220.945961961751,220.940174837215,220.934389058765,220.928603806525,220.922818352356,220.917032054642,220.911244353448,220.905454766004,220.899662882353,220.893868360889,220.888070924956,220.882270358625,220.87646650357,220.870659255193,220.864848559956,220.859034412015,220.853216850511,220.847395956633,220.841571851311,220.83574469248,220.829914672989,220.824082018111,220.818246983668,220.812409853959,220.806570939757,220.800730576829,220.794889123696,220.789046960597,220.783204487519,220.777362122905,220.771520302406,220.765679477278,220.75984011333,220.754002689714,220.748167697855,220.742335640284,220.736507029689,220.730682387962,220.724862245339,220.719047139429,220.713237614576,220.707434220999,220.701637514028,220.695848053502,220.690066403119,220.684293129729,220.678528802887,220.67277399414,220.6670292768,220.661295225176,220.655572414172,220.649861418962,220.644162814454,220.638477175056,220.632805074137,220.62714708397,220.621503774947,220.615875715699,220.610263472791,220.604667610061,220.599088688906,220.593527267613,220.587983901475,220.582459142284,220.576953538366,220.571467634372,220.566001971057,220.56055708503,220.555133508966,220.549731771008,220.544352394999,220.538995900152,220.533662801235,220.528353608034,220.523068825758,220.517808954594,220.512574489704,220.507365921437,220.502183734853,220.497028410048,220.49190042165,220.486800239473,220.481728327668,220.476685145419,220.471671146376,220.466686779226,220.461732486751,220.456808706759,220.451915871692,220.447054408396,220.442224738354,220.437427278071,220.432662438244,220.427930624415,220.423232236665,220.418567669821,220.413937313295,220.409341551304,220.404780762583,220.400255320829,220.395765594334,220.391311946173,220.386894734337,220.382514311213,220.378171024753,220.373865217073,220.369597225599,220.365367382772,220.361176015532
222.990145916086,222.965151624945,222.941348862518,222.918668128478,222.897043905293,222.87641442072,222.856721425441,222.837909985066,222.819928285077,222.802727448076,222.786261362709,222.770486523061,222.755361878058,222.740848690146,222.726910402691,222.713512515378,222.70062246725,222.68820952682,222.676244688736,222.664700576607,222.653551351704,222.642772627083,222.632341386518,222.622235908575,222.612435694853,222.602921402472,222.593674780458,222.584678609821,222.575916647127,222.567373571159,222.559034932665,222.550887106997,222.54291724947,222.535113253071,222.527463708681,222.519957867408,222.512585605169,222.505337388971,222.498204245432,222.491177730619,222.484249901827,222.477413290854,222.470660878516,222.463986070955,222.457382676776,222.450844885679,222.444367248294,222.437944656874,222.43157232709,222.425245781019,222.418960830677,222.412713562721,222.40650032375,222.400317706526,222.394162536859,222.388031861171,222.381922934677,222.375833210401,222.369760328355,222.363702105653,222.35765652699,222.351621735679,222.345596024943,222.339577829913,222.33356572,222.327558391418,222.32155466045,222.315553456737,222.309553817137,222.303554879756,222.297555878385,222.291556137128,222.285555065282,222.279552152886,222.273546965584,222.267539140813,222.261528383532,222.255514462214,222.24949720525,222.243476497521,222.237452276866,222.231424531164,222.225393295125,222.219358647501,222.213320708393,222.207279636794,222.201235627939,222.195188911093,222.189139747441,222.18308842786,222.177035271036,222.170980621516,222.164924848052,222.158868341755,222.15281151457,222.146754797758,222.14069864055,222.13464350851,222.128589882441,222.122538257231,222.1164891405,222.110443051522,222.104400520355,222.098362086661,222.092328298791,222.086299712868,222.080276892288,222.074260406358,222.068250829963,222.062248742668,222.056254728167,222.050269373531,222.044293268655,222.038327005536,222.032371178195,222.026426381574,222.02049321146,222.014572263974,222.008664134853,222.002769419535,221.996888712398,221.991022606583,221.985171693534,221.979336562827,221.973517801869,221.967715995398,221.961931725531,221.956165571325,221.950418108666,221.94468990977,221.938981543577,221.933293574955,221.927626564847,221.92198107001,221.916357642915,221.910756831619,221.905179179519,221.899625225526,221.894095503481,221.88859054265,221.883110867148,221.87765699594,221.872229443008,221.866828717181,221.861455321709,221.856109755143,221.850792509884,221.845504073495,221.84024492798,221.835015549863,221.82981640995,221.824647973769,221.819510701178,221.81440504676,221.809331459108,221.804290381608,221.799282251784,221.794307501893,221.789366558286,221.784459842024,221.779587768413,221.774750747509,221.769949183614,221.765183475423,221.760454016545,221.755761194664,221.751105392078,221.746486986034,221.741906348004,221.737363844291,221.732859835819,221.72839467794,221.723968721076,221.719582310425,221.715235785554
224.392066074173,224.36603802478,224.341251821358,224.317635059435,224.295119483856,224.273640741368,224.253138148592,224.233554475528,224.214835742252,224.196931028456,224.17979229526,224.163374217824,224.147634028455,224.132531369412,224.11802815466,224.104088440184,224.090678302033,224.077765721888,224.065320479377,224.053314050913,224.041719514553,224.0305114604,224.019665906457,224.009160219254,223.998973039209,223.989084210366,223.979474713995,223.970126606302,223.961022959562,223.952147806624,223.943486088516,223.935023605206,223.926746968984,223.918643560497,223.910701487287,223.90290954461,223.895257178387,223.887734450449,223.8803320052,223.873041038775,223.865853269257,223.858760908981,223.851756638051,223.844833579502,223.837985275656,223.831205665872,223.824489065262,223.817830144999,223.811223913098,223.804665696704,223.798151125076,223.791676113485,223.785236848089,223.778829771407,223.77245156886,223.766099155567,223.759769664354,223.753460433935,223.747168997921,223.740893074568,223.734630556623,223.728379502054,223.722138125186,223.715904788155,223.709677992999,223.703456373965,223.697238690354,223.691023819669,223.684810751108,223.678598579499,223.672386499259,223.666173799128,223.659959856567,223.653744133061,223.647526169206,223.641305580347,223.635082052051,223.628855336317,223.622625247722,223.616391659494,223.610154500323,223.603913750872,223.597669440903,223.591421646006,223.585170484904,223.578916116901,223.572658739261,223.566398584611,223.560135919033,223.553871039455,223.547604271912,223.541335969613,223.53506651081,223.528796297304,223.522525752531,223.516255320297,223.509985462918,223.503716660033,223.497449407318,223.49118421483,223.484921606216,223.47866211747,223.472406295434,223.466154697452,223.459907889741,223.453666446988,223.447430951018,223.441201990347,223.434980159166,223.428766056661,223.422560286266,223.41636345518,223.410176173426,223.403999053552,223.397832709899,223.39167775819,223.385534814872,223.379404496771,223.373287420629,223.367184202621,223.361095458132,223.355021801208,223.348963844116,223.342922197417,223.336897469218,223.330890265157,223.324901188105,223.318930837703,223.3129798104,223.307048699102,223.3011380929,223.295248577081,223.289380732683,223.283535136564,223.277712361097,223.271912974107,223.266137538725,223.260386613272,223.254660750981,223.248960500167,223.243286404125,223.237639000689,223.232018822354,223.226426396711,223.22086224528,223.215326884606,223.209820825396,223.204344572706,223.198898626373,223.193483480006,223.188099622189,223.18274753519,223.177427695897,223.172140575258,223.166886638598,223.16166634528,223.156480149365,223.151328498462,223.146211835195,223.141130595928,223.136085211189,223.131076106128,223.126103699755,223.121168405985,223.116270632305,223.111410781294,223.106589249211,223.101806427119,223.097062700593,223.092358448825,223.087694046472,223.083069862308,223.07848625934,223.073943595598,223.06944222335
225.794306161753,225.767230061153,225.741446918132,225.716881381326,225.6934624176,225.671123054393,225.649800138439,225.62943411016,225.60996879222,225.591351191251,225.573531312287,225.556461984641,225.540098698559,225.524399452012,225.509324606906,225.494836753941,225.480900585879,225.467482778318,225.454551877687,225.442078195946,225.430033711577,225.418391976404,225.407128027871,225.396218306705,225.385640579011,225.375373863216,225.365398361096,225.355695392814,225.346247335775,225.337037566774,225.328050407589,225.319271073719,225.310685625801,225.302280924009,225.294044584752,225.285964940031,225.278030998912,225.270232411149,225.262559432882,225.255002894124,225.247554168109,225.240205142285,225.232948190836,225.225776148889,225.21868228775,225.211660291919,225.204704236965,225.197808568818,225.190968084058,225.184177911332,225.177433493525,225.170730571399,225.164065167471,225.157433571143,225.150832324452,225.144258208644,225.137708231414,225.131179614879,225.124669783969,225.118176355695,225.111697128814,225.105230074031,225.098773324752,225.092325168312,225.085884037665,225.079448503411,225.073017266325,225.066589150272,225.060163095387,225.053738151776,225.04731347334,225.040888312045,225.034462012429,225.028034006375,225.021603808293,225.015171010334,225.008735277912,225.002296345605,224.995854013113,224.98940814134,224.982958648917,224.976505508736,224.970048744708,224.963588428648,224.957124677268,224.950657649703,224.944187544346,224.937714596868,224.931239077539,224.924761289064,224.91828156431,224.911800264516,224.905317777173,224.898834514225,224.892350910371,224.885867421426,224.879384522603,224.872902707264,224.866422485396,224.859944382323,224.853468937264,224.84699670242,224.840528241626,224.834064129241,224.827604949518,224.821151295077,224.814703766357,224.808262970696,224.801829521408,224.795404037108,224.788987140951,224.782579460037,224.776181624411,224.769794266914,224.763418022332,224.757053526724,224.750701417307,224.744362331584,224.738036906996,224.731725780546,224.725429588451,224.719148965547,224.712884544954,224.706636958052,224.700406833773,224.694194798428,224.688001475609,224.681827485549,224.675673445275,224.669539968054,224.663427663435,224.657337136949,224.651268989779,224.645223818776,224.639202216235,224.633204769803,224.627232062104,224.621284671012,224.615363169186,224.609468124001,224.603600097814,224.597759647267,224.591947323838,224.586163673115,224.58040923539,224.574684545187,224.568990131202,224.563326516654,224.557694218412,224.552093748135,224.546525611136,224.540990307074,224.535488329413,224.530020166282,224.524586299002,224.519187203651,224.513823350134,224.508495202077,224.503203217667,224.497947848664,224.492729541411,224.487548735854,224.482405866193,224.477301360593,224.472235641596,224.467209125787,224.462222223754,224.457275340481,224.452368875219,224.44750322097,224.442678765563,224.437895890963,224.433154973276,224.428456383227,224.423800485874
227.196880153336,227.168741063864,227.141946873218,227.11641923831,227.092084305744,227.068872443899,227.046717992038,227.025559025688,227.005337136601,226.985997226836,226.967487315546,226.94975835807,226.932764076003,226.916460797971,226.900807310004,226.88576471514,226.871296301589,226.857367418797,226.843945360945,226.830999257587,226.818499970604,226.806419997333,226.794733379566,226.783415617547,226.772443589408,226.761795475016,226.751450684252,226.741389789645,226.73159446252,226.722047413174,226.712732334163,226.703633847021,226.694737451761,226.686029479472,226.677497047458,226.669128016686,226.660910952055,226.652835084395,226.644890274825,226.637066981115,226.629356225614,226.62174956521,226.614239062878,226.606817260576,226.599477153842,226.592212167667,226.585016133643,226.577883268269,226.570808152792,226.563785713349,226.556811203181,226.549880184892,226.542988514071,226.536132323909,226.529308010181,226.52251221736,226.515741825452,226.508993937324,226.502265866775,226.495555127352,226.48885942152,226.482176630676,226.475504805304,226.468842156092,226.462187045006,226.455537977297,226.448893593603,226.442252662565,226.435614073759,226.428976831232,226.422340046882,226.415702934718,226.409064805101,226.402425059087,226.395783183875,226.389138747363,226.382491393798,226.37584083927,226.369186867864,226.362529327087,226.35586812501,226.34920322566,226.342534646513,226.33586245476,226.329186764608,226.322507734153,226.315825562549,226.309140487759,226.302452783856,226.295762758563,226.289070751243,226.282377130711,226.275682293153,226.268986660278,226.262290677629,226.255594812583,226.248899553011,226.242205405653,226.235512894447,226.228822559521,226.222134955536,226.21545065063,226.208770225202,226.202094270754,226.195423388861,226.188758190151,226.182099293293,226.175447324432,226.168802915724,226.162166705092,226.155539335246,226.148921452836,226.142313708093,226.135716753772,226.129131244986,226.122557838262,226.115997191227,226.10944996193,226.102916808573,226.096398388861,226.089895359642,226.083408376562,226.076938093619,226.070485162752,226.064050233753,226.057633953529,226.051236966284,226.044859912938,226.038503430874,226.032168153949,226.025854711867,226.019563730427,226.013295830999,226.007051630378,226.000831740765,225.994636769533,225.988467318904,225.982323986201,225.976207363587,225.97011803746,225.96405658916,225.958023594263,225.952019622861,225.946045239178,225.94010100188,225.934187463509,225.928305170914,225.922454664909,225.916636480354,225.910851145986,225.905099184645,225.899381112908,225.893697441548,225.888048674631,225.882435310684,225.876857841826,225.871316753981,225.865812526905,225.860345634314,225.854916543951,225.84952571683,225.844173608676,225.8388606682,225.83358733852,225.828354056815,225.823161254023,225.818009354745,225.812898778015,225.807829936854,225.802803238034,225.797819082795,225.792877866048,225.787979977229,225.783125799641,225.778315711131
228.59980233369,228.570584657065,228.542764686089,228.516261039112,228.49099699849,228.466900231947,228.443902532109,228.421939572672,228.400950679655,228.380878617522,228.361669388597,228.343272044832,228.325638511509,228.308723421619,228.292483960623,228.276879720463,228.261872562638,228.247426489449,228.233507523111,228.220083591946,228.207124423437,228.19460144367,228.182487682737,228.170757685441,228.15938742759,228.148354236877,228.137636718516,228.127214685082,228.117069090393,228.107181967218,228.097536368477,228.088116311827,228.078906727375,228.069893408224,228.061062963977,228.052402776709,228.043900959449,228.035546316866,228.027328308235,228.019237012435,228.011263094818,228.003397775806,227.995632801422,227.987960415301,227.980373332021,227.972864712258,227.965428139011,227.958057595116,227.950747442082,227.943492399873,227.936287528095,227.929128207687,227.922010123947,227.914929250625,227.907881834057,227.900864379109,227.893873635252,227.886906583392,227.879960423697,227.873032563869,227.866120607818,227.859222345325,227.85233574198,227.845458929706,227.838590197771,227.831727984172,227.824870867695,227.818017560154,227.811166899038,227.804317840721,227.797469453839,227.7906209131,227.783771493241,227.77692056357,227.770067582661,227.763212093096,227.756353716914,227.74949215092,227.742627162321,227.735758584669,227.72888631411,227.722010305423,227.715130568702,227.708247165961,227.701360207907,227.694469851087,227.68757629479,227.680679778652,227.673780579806,227.666879010705,227.659975416521,227.65307017312,227.646163685062,227.639256383311,227.632348723787,227.625441185184,227.618534267463,227.611628490276,227.604724391473,227.597822525593,227.590923462224,227.584027785411,227.577136091724,227.570248989399,227.563367097367,227.556491043868,227.549621465782,227.54275900747,227.53590432002,227.529058060444,227.522220890662,227.515393477057,227.508576489421,227.501770600738,227.494976486085,227.488194822312,227.481426287322,227.474671559777,227.467931318485,227.461206241529,227.454497006585,227.447804289934,227.441128766247,227.4344711081,227.42783198596,227.421212067412,227.414612017104,227.408032496637,227.401474163799,227.394937672702,227.388423673491,227.381932812109,227.375465729983,227.369023063934,227.362605445904,227.35621350308,227.349847857409,227.343509125475,227.337197918663,227.330914842877,227.324660498232,227.318435479245,227.312240374636,227.306075767246,227.299942234022,227.2938403456,227.287770666953,227.281733756773,227.275730167572,227.269760445377,227.263825130493,227.257924756589,227.25205985103,227.246230935015,227.240438523385,227.234683124683,227.228965240778,227.223285367718,227.217643994711,227.212041605144,227.206478675424,227.20095567622,227.195473071547,227.190031319373,227.184630871033,227.179272172191,227.173955661646,227.168681772368,227.163450931069,227.158263558479,227.153120068864,227.148020870739,227.142966366312,227.137956952019,227.132993018288
230.003087312836,229.972774773448,229.943913648817,229.916419470029,229.890212609145,229.86521799002,229.841364817852,229.818586325845,229.79681953806,229.776005047027,229.756086805798,229.737011932408,229.718730526865,229.701195499307,229.684362408734,229.668189311589,229.652636619597,229.637666966139,229.62324508068,229.609337670779,229.595913311075,229.582942338837,229.570396755823,229.558250135679,229.546477536932,229.53505542104,229.523961575092,229.513175039047,229.502676037144,229.492445913179,229.482467069631,229.47272290999,229.463197784612,229.45387693939,229.444746467474,229.43579326362,229.42700498103,229.418369990712,229.409877342878,229.40151673081,229.393278456249,229.38515339709,229.377132976597,229.369209134334,229.361374298807,229.353621361292,229.345943651388,229.338334913735,229.330789285805,229.323301277242,229.315865750032,229.308477899817,229.301133238105,229.293827575622,229.286557006236,229.27931789207,229.27210684906,229.264920733585,229.257756629495,229.250611835917,229.24348385597,229.236370385582,229.229269303224,229.222178659999,229.215096670412,229.208021703477,229.200952274291,229.193887036086,229.186824772703,229.179764391313,229.172704915794,229.165645480083,229.158585322081,229.15152377804,229.144460276631,229.137394334109,229.130325549206,229.123253598101,229.116178230516,229.109099264883,229.102016584646,229.094930134412,229.087839916133,229.080745985712,229.073648449775,229.06654746263,229.059443222887,229.052335971344,229.045225987688,229.038113588298,229.030999123753,229.023882976559,229.016765558872,229.009647310682,229.002528697702,228.995410209503,228.988292357992,228.981175675236,228.974060712477,228.966948038294,228.959838237261,228.952731908617,228.945629665075,228.938532131293,228.931439943136,228.924353746363,228.91727419571,228.910201953753,228.903137690162,228.896082080771,228.889035806746,228.881999553832,228.874974011419,228.867959872286,228.86095783156,228.853968586164,228.846992834365,228.840031275139,228.833084607576,228.826153530457,228.819238742033,228.812340939004,228.80546081672,228.79859906844,228.791756385067,228.784933454865,228.778130962989,228.771349591401,228.7645900184,228.757852918385,228.751138961802,228.744448814676,228.737783138444,228.731142589952,228.724527821059,228.717939478602,228.711378203998,228.70484463336,228.698339397391,228.691863121148,228.685416423672,228.678999918431,228.67261421276,228.66625990811,228.659937599554,228.653647876253,228.647391321,228.641168510491,228.634980014575,228.628826397091,228.62270821539,228.616626020299,228.610580356169,228.604571761063,228.598600766231,228.592667896275,228.586773669855,228.580918598389,228.575103187293,228.569327935173,228.563593334187,228.557899870004,228.552248021657,228.546638261924,228.541071057093,228.535546866466,228.530066143774,228.524629335973,228.519236883302,228.51388922018,228.508586774576,228.50332996816,228.498119216354,228.492954928079,228.487837506877
231.406750041407,231.375325668719,231.345407359896,231.316907507874,231.289743526622,231.263837551037,231.23911615626,231.215510094935,231.192954051176,231.171386410032,231.150749041441,231.130987097638,231.112048823275,231.093885377198,231.076450665037,231.05970118235,231.043595867027,231.02809596073,231.013164878733,230.998768087418,230.984872989288,230.971448814549,230.958466519319,230.945898689676,230.933719451419,230.921904384997,230.910430445409,230.899275886776,230.888420191209,230.877844001676,230.867529058828,230.857458141343,230.847615009646,230.837984352734,230.82855173817,230.819303564609,230.810227017285,230.801310025546,230.792541223234,230.78390991075,230.775406019653,230.767020078804,230.75874318261,230.750566960917,230.742483550457,230.73448556799,230.726566084739,230.71871860228,230.710937029676,230.703215661881,230.695549159295,230.687932528239,230.680361102767,230.672830527137,230.665336739347,230.657875955557,230.650444655258,230.643039567257,230.635657656282,230.628296110611,230.620952329803,230.613623913554,230.606308651002,230.599004510305,230.591709629169,230.584422305607,230.57714098918,230.569864272806,230.562590884915,230.555319682021,230.548049641554,230.540779855267,230.533509523016,230.526237946247,230.518964522941,230.511688741577,230.504410176363,230.49712848204,230.489843389581,230.482554701409,230.475262287405,230.467966080978,230.460666075051,230.453362318708,230.44605491381,230.438744011434,230.43142980923,230.424112548104,230.416792509792,230.409470014105,230.402145416349,230.394819105016,230.387491499695,230.380163048626,230.372834227004,230.365505534818,230.358177495209,230.350850652622,230.343525571318,230.336202833516,230.328883038316,230.321566799997,230.314254746798,230.306947519805,230.29964577159,230.292350165084,230.285061372499,230.277780074566,230.270506959321,230.263242721173,230.255988060285,230.248743681581,230.241510294098,230.234288610087,230.227079344539,230.219883214456,230.212700938106,230.205533234784,230.198380823887,230.1912444246,230.18412475567,230.177022534208,230.169938476177,230.162873295226,230.15582770299,230.14880240798,230.141798115919,230.134815529113,230.12785534637,230.120918262255,230.114004967432,230.107116148024,230.100252485557,230.093414656741,230.086603333218,230.079819181492,230.073062862678,230.066335032235,230.059636340159,230.052967430604,230.046328941629,230.039721505556,230.03314574848,230.026602290329,230.02009174438,230.013614718361,230.007171812767,230.000763621926,229.994390733987,229.988053729744,229.981753184153,229.975489664881,229.969263733587,229.963075944753,229.956926846311,229.950816979481,229.944746878541,229.938717071526,229.932728079227,229.926780416074,229.920874589494,229.915011100434,229.909190442991,229.903413104751,229.897679566543,229.891990302396,229.886345780169,229.88074646051,229.875192798149,229.869685240922,229.86422423019,229.858810200998,229.853443582008,229.848124794942,229.84285425582
232.810805826685,232.778251936907,232.747259738586,232.717738433765,232.689602428456,232.662771021515,232.637168113769,232.612721935584,232.589364791675,232.567032822326,232.545665779291,232.525206815841,232.505602289983,232.486801579487,232.468756908829,232.451423186088,232.434757850307,232.418720727801,232.403273897201,232.388381562568,232.37400993414,232.360127116084,232.346703000898,232.333709169996,232.321118800261,232.308906575843,232.297048605174,232.285522342731,232.274306515438,232.26338105303,232.252727022647,232.24232656691,232.232162845772,232.222219981304,232.212483005896,232.202937813105,232.1935711115,232.184370380695,232.175323830281,232.166420360532,232.157649525712,232.149001499,232.140467039636,232.13203746163,232.123704604373,232.115460804486,232.107298869732,232.099212053639,232.091194032266,232.083238881331,232.075341055384,232.067495367476,232.059696970266,232.051941337907,232.044224249088,232.036541770653,232.028890242476,232.021266262738,232.013666674427,232.00608855186,231.998529188711,231.990986085959,231.983456940944,231.97593963671,231.968432232037,231.960932951845,231.953440178282,231.945952442084,231.938468414558,231.930986899727,231.923506827139,231.916027244919,231.908547313062,231.901066297368,231.893583563414,231.886098570764,231.878610868008,231.871120087272,231.863625939593,231.856128210389,231.848626755125,231.841121494927,231.833612412956,231.826099550706,231.818583004094,231.811062920718,231.803539495998,231.796012970696,231.788483627784,231.780951789891,231.773417816351,231.765882101349,231.758345071079,231.75080718169,231.743268917307,231.735730787946,231.728193327666,231.720657092659,231.713122659683,231.705590624581,231.698061600427,231.690536216191,231.683015115598,231.675498955603,231.667988405228,231.660484144224,231.652986862312,231.645497257928,231.63801603725,231.630543913141,231.623081604568,231.615629835415,231.60818933396,231.600760832141,231.593345064481,231.585942767836,231.578554680585,231.571181541962,231.563824091634,231.556483069269,231.549159213552,231.541853262369,231.534565951928,231.52729801648,231.520050187769,231.512823195043,231.505617764353,231.498434618273,231.491274475862,231.484138052098,231.477026057612,231.469939198756,231.462878176973,231.455843688841,231.448836425888,231.441857074096,231.434906314241,231.427984821259,231.421093264259,231.414232306539,231.407402605358,231.400604811663,231.393839570313,231.387107519636,231.380409291504,231.373745511492,231.367116798569,231.360523764769,231.353967015537,231.347447149569,231.340964759005,231.334520428884,231.328114737348,231.32174825592,231.3154215491,231.309135174564,231.302889682734,231.296685617558,231.290523515874,231.284403907327,231.278327315434,231.272294255628,231.266305237788,231.260360764048,231.25446132946,231.248607423398,231.242799527311,231.237038116371,231.231323659044,231.225656616597,231.220037444511,231.214466590565,231.208944496818,231.203471598335,231.198048323256
234.215270348756,234.181568525632,234.149485039755,234.118925847187,234.089802294023,234.062030794341,234.035532528447,234.010233160979,233.986062576261,233.962954631057,233.940846922434,233.919680570192,233.89940001298,233.879952816883,233.861289495896,233.843363343203,233.826130272962,233.809548671484,233.793579257477,233.778184950618,233.763330748008,233.748983607969,233.735112340644,233.721687505141,233.708681312564,233.696067534844,233.683821418678,233.671919604653,233.660340050875,233.649061961014,233.638065716404,233.627332812105,233.616845796523,233.606588214355,233.596544552907,233.586700191247,233.577041352263,233.56755505739,233.558229083849,233.549051924145,233.540012747927,233.531101365773,233.522308195136,233.513624228031,233.505041000344,233.496550563113,233.48814545506,233.479818676801,233.471563666148,233.463374275169,233.455244748121,233.447169700521,233.439144099722,233.431163245958,233.423222754868,233.415318540622,233.407446800197,233.399603998088,233.391786852315,233.383992320693,233.3762175881,233.368460054313,233.360717322468,233.352987188127,233.345267628845,233.337556794436,233.329852997562,233.32215470495,233.314460528806,233.306769219048,233.299079655646,233.29139084145,233.283701895322,233.276012045603,233.268320624405,233.260627061017,233.252930877124,233.245231680994,233.237529162842,233.229823089869,233.222113301996,233.214399707383,233.206682278295,233.19896104768,233.191236104983,233.183507593143,233.175775704946,233.168040680143,233.160302802183,233.152562395985,233.14481982439,233.137075486464,233.129329814519,233.12158327213,233.113836351924,233.106089573368,233.098343480878,233.090598642116,233.08285564604,233.075115101419,233.067377635197,233.059643890634,233.051914526585,233.044190215451,233.036471642465,233.028759504195,233.021054507351,233.013357367773,233.005668809624,232.997989564071,232.990320368549,232.98266196586,232.975015103405,232.967380532221,232.959759006555,232.952151282901,232.944558119492,232.936980275614,232.929418510925,232.921873585162,232.914346257528,232.906837286003,232.89934742715,232.89187743555,232.884428063445,232.877000060192,232.869594172383,232.86221114282,232.854851710776,232.847516611379,232.840206575391,232.83292232924,232.825664594299,232.818434086933,232.811231518512,232.804057594743,232.796913015567,232.78979847561,232.782714663136,232.775662260657,232.768641944286,232.761654383796,232.754700242826,232.747780178076,232.74089484015,232.734044872472,232.727230911993,232.72045358866,232.7137135258,232.707011339496,232.700347639269,232.693723026914,232.687138098221,232.680593441101,232.674089636703,232.667627258984,232.661206874839,232.654829044008,232.648494319423,232.642203246304,232.635956363282,232.629754201689,232.62359728605,232.617486133179,232.611421253862,232.605403150507,232.599432320008,232.593509251314,232.587634426572,232.581808321384,232.576031404026,232.570304136419,232.564626973037,232.559000362201,232.553424745379
235.620159677718,235.585290752603,235.552097869255,235.52048368049,235.490356418579,235.461629561879,235.434221522389,235.408055353636,235.383058477057,235.359162425574,235.336302603513,235.31441806132,235.293451284453,235.273347995221,235.254056966898,235.235529849159,235.21772100417,235.200587352659,235.184088229145,235.168185246024,235.15284216557,235.138024779686,235.123700796746,235.109839735025,235.096412822417,235.083392902025,235.070754343205,235.058472957724,235.046525920773,235.034891696513,235.023549967807,235.012481570094,235.001668428778,234.991093500355,234.980740716685,234.97059493255,234.960641875897,234.950868101148,234.941260944728,234.931808483395,234.922499494615,234.913323419203,234.904270325905,234.895330878186,234.886496302354,234.877758357887,234.869109308938,234.860541897663,234.852049318889,234.84362519604,234.835263558433,234.826958819822,234.818705757933,234.810499495184,234.802335480502,234.79420947171,234.786117519423,234.778055951256,234.770021357233,234.762010575565,234.754020679678,234.746048965383,234.738092939096,234.730150306425,234.722218961463,234.714296976708,234.706382593261,234.698474211645,234.690570383385,234.682669802312,234.674771297064,234.666873823657,234.65897645815,234.651078390187,234.643178916642,234.635277435445,234.627373439925,234.619466513434,234.611556324027,234.603642619718,234.595725223779,234.587804030202,234.579878999773,234.571950155674,234.56401758026,234.556081410789,234.548141836759,234.540199096007,234.532253472065,234.524305290962,234.516354918823,234.508402758775,234.500449248831,234.492494859439,234.484540090978,234.476585471981,234.468631556903,234.460678924327,234.452728174954,234.444779930214,234.436834830272,234.428893532484,234.420956710379,234.413025051784,234.405099257664,234.397180040913,234.389268125013,234.381364243366,234.373469137435,234.365583556559,234.357708256528,234.349843998759,234.341991549565,234.334151679044,234.326325160971,234.318512771184,234.310715287628,234.302933489537,234.295168156475,234.287420068259,234.279690004167,234.271978742366,234.264287059655,234.25661573094,234.248965528606,234.241337222542,234.233731579231,234.226149361878,234.21859132994,234.211058238652,234.203550838862,234.196069876934,234.188616094186,234.181190226884,234.173793005887,234.166425156599,234.159087398639,234.151780445685,234.144505005577,234.137261779721,234.130051463155,234.122874744605,234.115732306316,234.108624823641,234.101552965303,234.094517393055,234.087518761886,234.080557719682,234.073634907174,234.06675095839,234.059906499783,234.053102150698,234.046338523564,234.03961622327,234.032935847569,234.02629798675,234.01970322397,234.013152135111,234.006645288941,234.000183246245,233.993766561588,233.987395780943,233.981071444257,233.974794083609,233.968564223685,233.962382382386,233.956249070172,233.950164790501,233.944130039298,233.938145306309,233.932211072982,233.926327814785,233.920495999459,233.914716088424,233.908988535387
237.025490291172,236.989434322112,236.955113199706,236.922426214002,236.891278427412,236.86158032973,236.833247514708,236.806200377904,236.780363833348,236.755667048425,236.732043195192,236.709429217448,236.687765612199,236.666996224689,236.647068055998,236.627931082563,236.609538086455,236.591844496176,236.574808236954,236.558389589959,236.542551060162,236.527257251706,236.512474750896,236.4981720161,236.484319273777,236.470888421091,236.457852933655,236.445187778967,236.432869334666,236.420875311465,236.409184680619,236.397777605291,236.386635376123,236.375740350078,236.365075892843,236.354626324752,236.344376869214,236.334313604322,236.324423417105,236.314693960211,236.305113611055,236.295671433165,236.286357139592,236.277161058387,236.268074099933,236.259087725879,236.250193920072,236.24138516076,236.232654394384,236.2239950107,236.215400819453,236.206866027933,236.198385220078,236.189953336339,236.181565654852,236.173217773501,236.164905593044,236.156625300763,236.148373355454,236.140146472799,236.131941611678,236.123755961253,236.115586928503,236.107432126634,236.099289363896,236.091156633125,236.08303210165,236.074914101943,236.066801122502,236.058691799484,236.050584908337,236.042479356428,236.034374175524,236.026268514917,236.018161634909,236.01005290048,236.001941775483,235.993827816934,235.985710669483,235.977590060944,235.969465796664,235.96133775569,235.953205886006,235.945070200446,235.936930772892,235.928787734624,235.920641270608,235.912491616102,235.904339053975,235.896183910886,235.888026555244,235.879867393952,235.871706869857,235.863545459563,235.85538367103,235.847222041198,235.839061134076,235.83090153852,235.822743866908,235.814588752475,235.806436848544,235.798288826115,235.790145373022,235.782007192033,235.77387499965,235.765749524848,235.757631507729,235.749521698416,235.741420856105,235.733329747645,235.725249147085,235.717179834217,235.709122594027,235.701078215712,235.693047491971,235.685031218185,235.677030191847,235.669045211755,235.661077077315,235.65312658841,235.645194544176,235.637281742935,235.629388981614,235.621517055197,235.613666756413,235.60583887506,235.598034198137,235.590253508759,235.582497586502,235.574767206766,235.567063140449,235.559386153749,235.55173700778,235.544116458739,235.536525257078,235.528964147834,235.521433869977,235.513935156697,235.506468734976,235.499035325291,235.491635641631,235.484270391573,235.47694027603,235.469645988762,235.462388216964,235.455167640442,235.447984932531,235.440840758556,235.433735777354,235.426670640336,235.41964599108,235.412662466489,235.405720695773,235.398821300446,235.391964895298,235.385152086739,235.378383474746,235.371659650574,235.364981199033,235.358348696985,235.351762713936,235.345223812067,235.338732545397,235.332289461667,235.325895100062,235.319549993198,235.313254665437,235.307009635165,235.300815411937,235.294672499015,235.288581391809,235.282542579096,235.27655654206,235.270623754637,235.264744684169
238.43127909236,238.394015342278,238.35854638696,238.324768091689,238.29258229087,238.261896430657,238.23262323491,238.204680392358,238.177990263668,238.15247960695,238.128079321212,238.104724204714,238.08235272948,238.060906829079,238.040331699763,238.020575613788,238.001589743881,237.983327998736,237.965746868112,237.948805277291,237.932464450421,237.916687781737,237.901440714519,237.886690627176,237.872406726117,237.858559944528,237.845122847382,237.832069541856,237.819375592785,237.807017943038,237.794974838481,237.783225757115,237.771751342377,237.760533339955,237.749554538351,237.738798712831,237.728250572151,237.717895708635,237.707720550877,237.697712318746,237.687858981483,237.678149217562,237.668572376883,237.6591184451,237.649778009896,237.640542228923,237.631402799568,237.622351930402,237.613382314027,237.604487101381,237.595659877566,237.586894638856,237.578185770782,237.569528027566,237.560916512601,237.55234665997,237.543814216744,237.535315226389,237.526846013196,237.518403167046,237.509983529404,237.501584179738,237.493202423009,237.484835777304,237.476481962511,237.468138889438,237.459804649441,237.451477504692,237.443155878807,237.434838348084,237.426523633049,237.418210590667,237.409898206623,237.401585588268,237.393271957879,237.384956646018,237.376639085593,237.368318805901,237.359995427222,237.351668655587,237.343338277753,237.335004156242,237.326666225396,237.318324486695,237.309979004868,237.301629903853,237.293277363565,237.284921615998,237.276562942145,237.268201668911,237.259838166232,237.251472843971,237.243106149303,237.234738564543,237.22637060444,237.218002813893,237.209635765813,237.201270059138,237.19290631708,237.184545184691,237.176187327684,237.167833430472,237.159484194739,237.15114033796,237.142802591769,237.134471700908,237.126148421556,237.117833520858,237.109527774901,237.101231968234,237.092946892563,237.084673346029,237.076412132075,237.06816405865,237.059929937488,237.05171058304,237.043506812366,237.035319443512,237.027149295976,237.018997188994,237.010863941815,237.002750372673,236.994657298498,236.986585534419,236.978535893074,236.970509184577,236.962506215812,236.954527790129,236.946574707145,236.938647762144,236.930747746035,236.922875444856,236.915031639744,236.907217106394,236.899432614993,236.891678930062,236.883956810187,236.876267007651,236.868610268647,236.860987332833,236.853398933233,236.845845796146,236.838328640882,236.830848180095,236.823405119122,236.816000156185,236.808633982012,236.801307280762,236.794020728424,236.786774993687,236.779570738132,236.772408615457,236.765289271789,236.758213346049,236.751181468823,236.74419426377,236.737252346321,236.730356324889,236.723506799582,236.71670436285,236.709949600005,236.703243088273,236.696585397528,236.689977089539,236.683418718888,236.676910832674,236.670453969764,236.66404866224,236.657695434554,236.651394802734,236.645147276829,236.638953358658,236.632813542231,236.626728315392,236.620698157943
239.837543429129,239.799050343205,239.762413187008,239.727524337246,239.694282339443,239.662591539308,239.632361736892,239.603507863383,239.575949678161,239.549611485316,239.524421867683,239.500313438075,239.477222605392,239.4550893557,239.433857046439,239.413472213608,239.393884390316,239.375045936714,239.356911879927,239.339439763693,239.322589507009,239.306323271163,239.290605334633,239.275401975305,239.260681359754,239.246413438772,239.232569849116,239.219123820953,239.206050090509,239.193324817795,239.180925509082,239.168830943719,239.157021105078,239.145477115448,239.134181174652,239.1231165018,239.112267280729,239.101618608009,239.091156444323,239.080867568028,239.07073953156,239.060760620284,239.050919813294,239.041206746606,239.031611678244,239.0221254552,239.01273948221,239.003445692153,238.994236518084,238.985104866851,238.976044093708,238.967047978999,238.958110705084,238.949226835781,238.940391295307,238.931599349917,238.922846589281,238.914128909525,238.905442496766,238.89678381182,238.888149575564,238.879536754936,238.870942549844,238.862364380588,238.853799876209,238.845246862894,238.836703353832,238.828167538503,238.819637773507,238.811112573361,238.802590601696,238.794070663209,238.785551695809,238.777032763236,238.768513047989,238.759991844824,238.751468554373,238.742942676759,238.734413806445,238.72588162665,238.717345903947,238.70880648374,238.700263285485,238.6917162982,238.683165576374,238.674611235908,238.666053450582,238.657492448322,238.648928507647,238.640361954836,238.631793160474,238.623222536831,238.614650534879,238.606077641887,238.597504378767,238.588931297812,238.580358980451,238.571788035198,238.563219095414,238.55465281754,238.546089879509,238.537530978447,238.528976829703,238.520428164933,238.511885730647,238.503350287084,238.494822606314,238.486303471718,238.477793676439,238.469294022154,238.460805318312,238.45232838096,238.443864031849,238.435413097524,238.426976408289,238.418554797837,238.410149102283,238.401760159232,238.393388807552,238.38503588607,238.376702233927,238.368388689067,238.360096088562,238.351825267164,238.343577057754,238.335352290375,238.327151791862,238.318976385604,238.310826891223,238.302704123776,238.294608894325,238.286542008686,238.278504267597,238.270496466495,238.262519395301,238.254573838026,238.246660572441,238.238780370367,238.230933997092,238.223122211226,238.215345764781,238.207605402929,238.199901863607,238.192235877858,238.18460816948,238.177019454778,238.169470442698,238.161961835004,238.154494325659,238.147068600873,238.139685339522,238.132345212393,238.125048882927,238.117797006565,238.110590230816,238.103429195655,238.096314533011,238.089246867199,238.082226814333,238.075254982593,238.068331972991,238.061458378021,238.054634782507,238.047861763843,238.041139890923,238.034469725448,238.027851821055,238.021286723898,238.014774972062,238.008317096298,238.001913619439,237.995565057414,237.989271917513,237.983034699987,237.976853898418
241.244301113286,241.204556295041,241.166729773982,241.130710370873,241.09639328002,241.063679687263,241.032476413112,241.002695578519,240.974254292024,240.947074356483,240.92108199482,240.896207592328,240.872385455426,240.84955358535,240.827653465582,240.806629862514,240.786430638229,240.767006574456,240.748311207623,240.730300673173,240.712933559803,240.696170771931,240.679975400569,240.664312601676,240.649149481717,240.634454989784,240.620199816264,240.606356296934,240.592898323036,240.579801256176,240.567041848256,240.554598165968,240.542449519391,240.530576394756,240.518960391124,240.507584160234,240.496431350042,240.485486551271,240.474735246873,240.464163764339,240.453759230633,240.44350952959,240.433403261522,240.423429705232,240.413578781891,240.403841021016,240.394207528166,240.384669954373,240.375220467255,240.365851723899,240.35655684443,240.347329388048,240.338163329507,240.329053037134,240.319993251968,240.310979068098,240.302005913802,240.293069534036,240.284165973327,240.275291559946,240.266442890923,240.257616817431,240.24881043149,240.240021052832,240.231246216751,240.222483662577,240.213731322546,240.204987311396,240.196249916443,240.187517588221,240.178788931526,240.170062696909,240.161337772608,240.15261317701,240.143888051402,240.13516165299,240.126433348379,240.117702607409,240.108968997434,240.100232177351,240.091491892535,240.082747969856,240.074000312876,240.065248896953,240.056493765526,240.047735025497,240.038972843615,240.030207442641,240.021439098043,240.012668134409,240.003894922531,239.995119876233,239.986343449472,239.977566133926,239.968788456206,239.960010975385,239.951234280675,239.942458989575,239.933685745364,239.92491521542,239.916148089124,239.907385076241,239.898626905239,239.889874321525,239.881128086134,239.872388974369,239.863657774014,239.854935284547,239.846222315471,239.837519685718,239.828828221953,239.820148758038,239.811482133642,239.802829193637,239.794190787122,239.785567766478,239.776960986818,239.768371304879,239.759799579052,239.751246667642,239.742713429248,239.734200721788,239.725709401838,239.717240324214,239.708794341526,239.700372303695,239.691975057697,239.683603446672,239.675258310109,239.666940483117,239.658650796334,239.650390075548,239.642159141058,239.633958808172,239.625789886192,239.617653178508,239.609549482558,239.601479589193,239.593444282922,239.585444341405,239.57748053554,239.569553629137,239.561664379096,239.553813534693,239.5460018381,239.53823002389,239.53049881912,239.52280894311,239.515161107977,239.507556017088,239.499994367045,239.492476845549,239.4850041333,239.477576902432,239.470195817338,239.462861534279,239.455574701646,239.448335959725,239.441145940679,239.434005268891,239.426914560287,239.41987442318,239.412885457519,239.405948255469,239.399063401047,239.392231470488,239.38545303196,239.378728645793,239.372058864159,239.365444231702,239.358885285404,239.35238255396,239.345936558461,239.339547812586,239.333216822122
242.65157044099,242.610550627797,242.571512757704,242.534342026669,242.498930212159,242.465175278838,242.432981009752,242.402256660962,242.372916638485,242.344880195701,242.318071149286,242.292417613884,242.267851752536,242.24430954294,242.221730558055,242.200057760189,242.179237307602,242.159218372934,242.139952972469,242.121395805859,242.103504105232,242.086237493414,242.069557850433,242.053429188124,242.037817531742,242.022690808822,242.008018744274,241.993772761712,241.979925890317,241.966452677156,241.953329104515,241.940532511787,241.928041522016,241.915835972339,241.903896848602,241.892206223383,241.880747197586,241.869503845347,241.858461161821,241.847605014079,241.836922094412,241.82639987642,241.816026573473,241.805791099277,241.795683030687,241.785692572672,241.775810524798,241.766028249876,241.756337644052,241.74673110861,241.737201523268,241.727742220832,241.718346963137,241.709009918515,241.699725640196,241.690489045798,241.681295398172,241.672140287089,241.663019611768,241.653929564343,241.644866614651,241.635827494957,241.626809186188,241.617808904655,241.608824089175,241.599852389443,241.590891654315,241.581939921314,241.572995406226,241.564056493438,241.555121726705,241.546189800533,241.537259551675,241.528329951335,241.51940009768,241.510469208885,241.5015366161,241.492601757308,241.483664171154,241.474723491157,241.465779440025,241.45683182491,241.447880532303,241.438925523115,241.429966828214,241.42100454475,241.412038831305,241.403069904914,241.39409803681,241.38512354924,241.376146812256,241.367168240695,241.358188290685,241.349207457712,241.340226273215,241.331245302624,241.322265142536,241.313286418668,241.304309783855,241.295335915638,241.286365514664,241.277399302782,241.268438021013,241.259482428329,241.250533300073,241.241591425874,241.232657609107,241.223732664844,241.214817419018,241.20591270704,241.197019372947,241.188138267891,241.179270249317,241.170416180395,241.161576928373,241.152753364399,241.143946362333,241.135156798114,241.126385548981,241.117633493011,241.108901507993,241.10019047151,241.091501259746,241.082834747301,241.074191806535,241.065573307255,241.056980115986,241.048413096052,241.039873106539,241.031361002446,241.022877634143,241.014423846985,241.006000481324,240.99760837161,240.989248346913,240.980921230043,240.972627837664,240.964368979929,240.956145460547,240.94795807605,240.939807616342,240.931694863896,240.923620594253,240.915585575088,240.907590567163,240.899636323082,240.891723587896,240.88385309905,240.876025585871,240.868241769941,240.860502364581,240.852808075363,240.84515959939,240.837557626129,240.830002836766,240.822495903696,240.815037492041,240.807628257876,240.800268849614,240.792959907075,240.785702062206,240.778495938335,240.771342151335,240.76424130776,240.757194006814,240.750200839448,240.743262388025,240.736379227263,240.729551923738,240.722781035761,240.716067113999,240.709410701136,240.702812331009,240.696272530827,240.689791819361
244.059370213466,244.017051250826,243.976779203392,243.938435570507,243.901908645292,243.867093107314,243.833889642022,243.802204583944,243.7719495833,243.743041293079,243.715401076636,243.68895473272,243.663632238591,243.639367508289,243.616098166371,243.593765335226,243.57231343548,243.551689998523,243.531845490332,243.512733145997,243.494308813957,243.476530809715,243.459359778079,243.442758563602,243.426692088563,243.411127238161,243.39603275231,243.381379123801,243.367138502103,243.353284603071,243.339792623415,243.326639160294,243.313802135325,243.301260723018,243.288995283134,243.276987296816,243.265219306339,243.253674858215,243.242338449336,243.231195476346,243.220232187395,243.209435636955,243.198793642766,243.188294745306,243.177928169559,243.167683788377,243.157552088457,243.147524137661,243.137591554359,243.127746478076,243.117981542279,243.108289847914,243.098664938894,243.089100778489,243.079591727244,243.07013252213,243.060718256138,243.051344359781,243.042006583093,243.032700978579,243.023423885105,243.014171912801,243.004941928417,242.99573104162,242.986536592028,242.977356136791,242.968187438964,242.959028456197,242.949877330384,242.940732377563,242.931592078353,242.922455068984,242.913320132813,242.904186192003,242.895052299947,242.885917633976,242.876781488278,242.867643267232,242.858502479491,242.849358731564,242.840211722543,242.83106123845,242.821907147408,242.81274939465,242.803587997718,242.794423042519,242.78525467901,242.776083117056,242.766908622967,242.757731515897,242.748552164428,242.739370983098,242.730188430199,242.721005003776,242.711821239913,242.702637709284,242.693455015507,242.684273791963,242.675094700341,242.665918428132,242.656745686663,242.647577208964,242.638413748909,242.629256078301,242.620104986035,242.610961276231,242.601825767241,242.592699289452,242.583582684879,242.5744768053,242.565382511593,242.556300671923,242.547232161581,242.538177861361,242.529138656827,242.520115437585,242.511109095894,242.50212052669,242.493150626331,242.484200291815,242.475270420685,242.466361909442,242.457475654148,242.448612548864,242.439773485583,242.430959353897,242.422171040047,242.413409426986,242.404675393712,242.395969814812,242.387293560323,242.378647495489,242.370032479946,242.361449367832,242.352899007782,242.344382241747,242.335899905884,242.327452829499,242.31904183528,242.310667738927,242.302331349061,242.294033467091,242.285774886958,242.277556395018,242.269378770054,242.261242783031,242.25314919721,242.24509876765,242.237092241498,242.229130357867,242.221213847646,242.213343433497,242.20551982958,242.197743742237,242.190015869392,242.182336900159,242.174707515584,242.167128388461,242.159600182698,242.152123554586,242.144699151019,242.137327611212,242.130009565961,242.122745637241,242.115536438887,242.108382576749,242.101284647342,242.094243240477,242.087258936473,242.080332307339,242.073463917635,242.066654323502,242.059904072835,242.053213705569,242.046583753339
245.4677197589,245.424076573467,245.382546650785,245.343007718959,245.305344516448,245.269448371753,245.235216810298,245.202553186401,245.171366338799,245.141570268164,245.113083834696,245.085830474952,245.059737936256,245.034738027494,245.010766385482,244.987762255543,244.965668285544,244.944430332421,244.923997280436,244.904320870366,244.885355538854,244.867058267421,244.849388440377,244.832307711162,244.81577987642,244.799770757566,244.784248089151,244.769181413898,244.754541983316,244.740302664643,244.726437852572,244.712923386426,244.699736471625,244.686855605947,244.67426050974,244.661932060011,244.64985222836,244.638004022276,244.62637142955,244.61493936603,244.603693625923,244.592620835159,244.581708407118,244.570944500656,244.560317980601,244.549818380324,244.539435866328,244.529161204687,244.518985729276,244.50890131181,244.498900333401,244.488975657591,244.479120604842,244.469328928337,244.45959479127,244.449912744897,244.440277708164,244.430684948127,244.421130061593,244.411608957493,244.402117840358,244.39265319455,244.383211769299,244.373790564605,244.364386817786,244.354997990724,244.345621757736,244.336255994237,244.326898765691,244.317548317373,244.308203064529,244.298861583127,244.289522600961,244.280184989267,244.270847754816,244.261510032254,244.252171077149,244.242830258966,244.233487054425,244.224141041978,244.214791895322,244.205439378342,244.196083339416,244.18672370691,244.177360483955,244.167993744229,244.15862362767,244.149250336435,244.139874130882,244.130495325957,244.121114287937,244.111731430838,244.102347213521,244.092962136527,244.083576739357,244.074191597883,244.064807321439,244.055424551095,244.046043956635,244.036666234734,244.027292106869,244.017922317506,244.008557632025,243.999198834982,243.989846728619,243.980502130915,243.971165874747,243.961838805828,243.952521781568,243.943215669982,243.933921348319,243.924639701929,243.915371623192,243.90611801062,243.896879767634,243.88765780201,243.878453024504,243.8692663488,243.860098689863,243.850950964051,243.841824087617,243.832718976745,243.823636546732,243.81457771088,243.805543381194,243.796534466435,243.787551872728,243.778596502592,243.769669254572,243.760771023037,243.751902697619,243.743065162928,243.734259298504,243.725485977772,243.716746068635,243.708040432646,243.699369925095,243.69073539447,243.682137682428,243.673577623825,243.665056046033,243.656573769062,243.648131605474,243.639730360277,243.631370830397,243.623053805051,243.614780065444,243.606550384782,243.598365527691,243.590226250609,243.582133302406,243.574087422743,243.566089342893,243.558139786085,243.550239466659,243.542389090681,243.534589355463,243.52684094995,243.519144554213,243.511500840088,243.503910470442,243.496374100135,243.488892374563,243.48146593122,243.474095399061,243.466781398519,243.459524540693,243.452325429669,243.445184659519,243.438102817196,243.431080480604,243.424118219467,243.417216594763,243.410376160112,243.403597460305
246.87663895507,246.831645526822,246.788833134713,246.748075658329,246.709254208683,246.67225669461,246.63697741682,246.603316688422,246.571180479367,246.540480083561,246.511131807031,246.483056675719,246.456180161404,246.430431924705,246.405745573961,246.382058438948,246.359311358336,246.337448480235,246.316417074569,246.296167357019,246.276652323247,246.257827593222,246.239651264633,246.222083774974,246.2050877718,246.188627990506,246.172671139359,246.157185790787,246.142142279527,246.127512606228,246.113270346548,246.099390565733,246.085849737733,246.072625668957,246.059697426534,246.047045270253,246.034650588507,246.022495837929,246.010564485908,245.998840956776,245.987310580773,245.975959545595,245.964774850995,245.953744265453,245.942856285463,245.932100096977,245.921465538694,245.910943067797,245.900523726929,245.89019911349,245.879961350087,245.869803056932,245.85971732553,245.849697693749,245.839738122107,245.829832971609,245.819976982424,245.810165253915,245.800393225388,245.790656658328,245.780951619091,245.771274462659,245.761621817382,245.751990570332,245.742377853436,245.732781030272,245.72319768377,245.713625604257,245.704062778286,245.694507377926,245.684957750721,245.675412410134,245.665870026355,245.656329417659,245.646789542267,245.637249490471,245.627708477234,245.618165835355,245.608621008562,245.599073545323,245.589523092802,245.579969390966,245.570412267581,245.560851632626,245.551287473735,245.54171985134,245.532148894316,245.522574795877,245.512997809459,245.503418245249,245.49383646607,245.484252884487,245.474667959426,245.46508219289,245.455496127438,245.445910342902,245.436325454531,245.426742109473,245.417160985705,245.407582788358,245.398008248691,245.388438121767,245.378873184239,245.369314232831,245.35976208272,245.350217565605,245.340681528267,245.331154831227,245.321638347351,245.312132960331,245.3026395636,245.293159059105,245.283692356457,245.27424037132,245.264804024919,245.255384242881,245.245981954425,245.236598091382,245.227233587572,245.217889378026,245.208566398233,245.199265583373,245.189987867818,245.180734184617,245.171505464721,245.162302636709,245.153126626036,245.143978354814,245.134858741217,245.125768699027,245.116709137498,245.107680960837,245.098685067691,245.089722351405,245.0807936988,245.071899991034,245.063042102485,245.054220900854,245.045437246699,245.036691993848,245.027985988392,245.01932006932,245.010695067463,245.002111806415,244.993571101411,244.985073760033,244.976620581161,244.968212355923,244.959849866883,244.95153388808,244.943265185521,244.935044516192,244.926872628643,244.918750262834,244.910678150161,244.902657012582,244.894687564728,244.886770511,244.878906548036,244.871096363257,244.863340635195,244.855640034124,244.847995221254,244.840406848882,244.832875560744,244.825401992122,244.817986769071,244.81063050963,244.803333822321,244.796097308052,244.788921558363,244.781807156894,244.774754678441,244.767764689175,244.760837747482
248.286148252349,248.23977758562,248.195657206161,248.153657065036,248.113654570229,248.075534139787,248.039186782843,248.004509708054,247.971405956863,247.939784060328,247.909557717254,247.880645492766,247.85297053592,247.826460314327,247.80104636564,247.776664064199,247.753252401781,247.730753781945,247.709113826616,247.68828119435,247.668207409703,247.648846702422,247.630155856461,247.612094067797,247.594622810543,247.577705711167,247.561308429457,247.545398547267,247.529945462749,247.514920291354,247.500295772056,247.486046179332,247.4721472396,247.458576052999,247.445311018971,247.432331766569,247.419619088064,247.407154876871,247.394922068379,247.382904584409,247.371087280546,247.359455896323,247.347997008331,247.336697985607,247.325546947822,247.314532725137,247.303644820893,247.292873375799,247.282209134333,247.271643412716,247.261168068869,247.250775473567,247.240458483568,247.230210415763,247.220025022941,247.209896470897,247.199819316211,247.189788485835,247.179799257664,247.169847241316,247.159928361161,247.150038839148,247.14017517919,247.130334152013,247.120512780902,247.110708328199,247.100918282414,247.091140345997,247.081372424026,247.071612612795,247.061859189777,247.05211060361,247.042365464649,247.032622536159,247.022880725862,247.013139077639,247.003396764421,246.993653080444,246.983907434609,246.974159344083,246.964408427753,246.954654400771,246.944897068309,246.935136321309,246.925372130244,246.915604541193,246.905833670993,246.896059702832,246.886282882345,246.876503513603,246.866721955432,246.856938618068,246.847153959531,246.837368482571,246.827582731973,246.817797291167,246.808012780118,246.79822985205,246.788449191783,246.778671512893,246.768897555758,246.759128085347,246.749363889346,246.739605776056,246.729854573147,246.72011112548,246.710376293648,246.70065095247,246.690935989822,246.681232304693,246.671540806561,246.661862413753,246.652198052437,246.642548655519,246.632915161581,246.623298514145,246.613699660177,246.604119549968,246.594559135737,246.585019371083,246.575501210387,246.566005607642,246.556533516565,246.547085889267,246.537663676045,246.528267824748,246.518899280177,246.509558984054,246.500247873813,246.490966882844,246.481716939859,246.472498968378,246.463313886573,246.454162606991,246.445046035957,246.435965073857,246.426920613948,246.417913543197,246.408944741288,246.400015080691,246.391125426543,246.382276636298,246.37346955948,246.364705038039,246.355983905597,246.347306987559,246.338675101305,246.33008905557,246.321549650632,246.313057678473,246.30461392208,246.29621915577,246.287874145414,246.279579647615,246.271336410609,246.2631451733,246.255006666255,246.24692161042,246.238890718207,246.230914692978,246.222994229611,246.215130013124,246.207322720133,246.199573018417,246.191881566853,246.184249014957,246.176676004036,246.169163165752,246.161711123803,246.154320492551,246.146991877539,246.139725876162,246.132523076687,246.125384058454,246.118309393143
249.69626869834,249.648492791424,249.603037954275,249.559770126196,249.518562934212,249.47929723171,249.441860666757,249.406147278091,249.372057117002,249.33949589329,249.308374643563,249.278609420436,249.250121000994,249.222834613662,249.196679681657,249.171589582546,249.147501422119,249.124355822447,249.102096722423,249.080671190552,249.060029248851,249.040123707267,249.020910007971,249.00234607877,248.98439219531,248.967010851,248.950166634936,248.933826116662,248.917957737465,248.902531708398,248.887519913442,248.872895818868,248.858634387305,248.844711996729,248.831106364285,248.817796474003,248.804762508802,248.791985786146,248.779448697305,248.767134650112,248.75502801462,248.743114071838,248.731378965325,248.719809655408,248.708393875793,248.697120092627,248.685977465637,248.674955811579,248.664045569314,248.653237767129,248.642523991412,248.631896357352,248.621347480962,248.610870452473,248.600458811602,248.590106523528,248.579807956511,248.569557860593,248.559351347302,248.549183870573,248.539051208662,248.528949446503,248.518874959966,248.508824399974,248.498794677811,248.488782951384,248.478786611701,248.468803270713,248.458830748901,248.44886706448,248.438910422244,248.428959203576,248.419011956919,248.409067388189,248.399124352582,248.389181845814,248.379238996603,248.369295058983,248.359349405516,248.349401520126,248.339450992241,248.329497510084,248.319540855969,248.309580899309,248.299617592742,248.289650966859,248.279681125039,248.269708239476,248.259732546953,248.24975434448,248.239773986021,248.229791878201,248.219808477688,248.209824287112,248.199839852586,248.189855760502,248.179872634765,248.169891134018,248.15991194957,248.149935802539,248.139963441707,248.129995641874,248.120033200782,248.110076938238,248.10012769386,248.090186324925,248.080253705699,248.070330724858,248.060418284896,248.050517299922,248.040628694801,248.03075340406,248.020892370287,248.011046543237,248.001216878651,247.99140433738,247.981609884479,247.971834487883,247.962079118296,247.952344747764,247.942632349207,247.932942895663,247.923277359457,247.913636711954,247.904021922401,247.894433957945,247.884873782974,247.875342358123,247.865840640304,247.856369582324,247.846930132152,247.837523232772,247.82814982183,247.818810830725,247.809507185479,247.800239805301,247.791009602793,247.781817483843,247.772664347226,247.763551084154,247.754478578476,247.74544770642,247.736459335959,247.727514327411,247.718613532811,247.709757795746,247.700947951468,247.692184826669,247.683469239407,247.674801999063,247.666183906065,247.657615752168,247.649098320298,247.640632384086,247.632218708253,247.623858048352,247.615551151716,247.607298755212,247.599101587498,247.590960368002,247.582875806788,247.57484860506,247.566879454596,247.558969038316,247.551118029897,247.543327094162,247.535596886666,247.527928053671,247.52032123316,247.512777053525,247.505296134496,247.497879086424,247.490526512029,247.483239003703,247.476017146146
251.107021962963,251.057811776531,251.010995028962,250.966433561594,250.923997139375,250.883562974713,250.845015282626,250.808244864029,250.773148716092,250.739629667052,250.707596034351,250.676961304156,250.647643831047,250.619566556154,250.592656743075,250.566845729636,250.542068695252,250.518264442222,250.495375190208,250.473346383364,250.452126508763,250.431666925888,250.411921706058,250.392847481456,250.374403302989,250.356550506529,250.339252586952,250.322475079271,250.306185446964,250.290352976617,250.274948678336,250.259945192255,250.245316700016,250.231038841523,250.217088636016,250.203444408043,250.190085717225,250.176993291966,250.164148966943,250.151535624115,250.139137136689,250.126938316388,250.114924863625,250.103083320219,250.091401024811,250.07986607063,250.068467265579,250.05719409438,250.046036682887,250.03498576405,250.024032646126,250.013169182124,250.002387740984,249.99168118065,249.981042821859,249.970466424017,249.959946162005,249.949476603866,249.939052690436,249.92866971548,249.918323306718,249.908009408375,249.89772426445,249.887464402279,249.877226617834,249.867007961193,249.85680572295,249.846617421196,249.836440789443,249.826273764736,249.816114476693,249.805961237181,249.795812530074,249.785667002021,249.775523453329,249.765380829631,249.75523821337,249.74509481682,249.734949974151,249.724803134605,249.714653856227,249.704501799602,249.69434672145,249.684188469368,249.674026976558,249.663862256536,249.653694398384,249.64352356207,249.633349974439,249.623173924613,249.612995760237,249.602815884016,249.59263474997,249.582452859788,249.572270760344,249.562089039874,249.551908325701,249.541729281423,249.531552603721,249.521379020937,249.511209289902,249.50104419403,249.490884541234,249.480731161891,249.470584907169,249.460446646646,249.450317267438,249.440197671894,249.430088776539,249.419991510382,249.409906813467,249.39983563596,249.389778936719,249.379737681832,249.369712844123,249.359705401569,249.349716336658,249.339746635408,249.329797286388,249.319869279824,249.309963607282,249.300081260174,249.290223229694,249.280390506181,249.270584077859,249.260804930995,249.251054048851,249.241332411565,249.231640995187,249.221980771826,249.212352708806,249.202757768098,249.193196906726,249.183671075559,249.174181219379,249.164728276867,249.155313179442,249.145936852207,249.136600212591,249.127304170742,249.118049629375,249.108837483054,249.099668618503,249.09054391439,249.081464240987,249.072430460013,249.063443424549,249.054503979466,249.045612960328,249.036771194404,249.027979499138,249.01923868378,249.010549548236,249.001912883256,248.993329470266,248.984800081736,248.976325480794,248.967906420993,248.959543647297,248.951237894583,248.942989889025,248.934800347411,248.926669976735,248.91859947515,248.910589531475,248.902640825531,248.894754026995,248.886929797286,248.879168788374,248.871471642616,248.863838993974,248.85627146662,248.848769676585,248.841334229973,248.833965724275
