-34.980331665948,-34.9394889435602,-34.8996870366847,-34.8608721058357,-34.8229930364452,-34.7860013052069,-34.7498508551088,-34.7144979748741,-34.679901186064,-34.646021134817,-34.6128204892423,-34.5802638424813,-34.5483176195087,-34.5169499895475,-34.4861307823214,-34.4558314082983,-34.4260247832696,-34.3966852563084,-34.3677885414147,-34.3393116517929,-34.3112328388339,-34.2835315323947,-34.2561882848511,-34.2291847178579,-34.2025034708601,-34.1761281532341,-34.1500432980303,-34.1242343176223,-34.0986874622763,-34.0733897798081,-34.048329078106,-34.0234938883549,-33.9988734307928,-33.974457581736,-33.950236842319,-33.9262023084465,-33.9023456421355,-33.8786590446664,-33.8551352300962,-33.8317674018585,-33.8085492268528,-33.7854748155834,-33.7625386986135,-33.7397358073128,-33.7170614536484,-33.6945113120939,-33.6720814010013,-33.6497680668914,-33.6275679671474,-33.6054780551059,-33.5834955648708,-33.5616179978564,-33.5398431087234,-33.5181688929882,-33.4965935746448,-33.4751155944801,-33.4537335984344,-33.4324464279132,-33.4112531088396,-33.3901528422541,-33.3691449949655,-33.3482290904523,-33.327404801034,-33.3066719392394,-33.2860304502904,-33.2654804044424,-33.2450219909212,-33.2246555098591,-33.2043813671107,-33.184200067208,-33.164112208283,-33.1441184756714,-33.1242196370175,-33.1044165384178,-33.0847100962276,-33.0651012970822,-33.0455911889096,-33.0261808800073,-33.0068715329847,-32.9876643627879,-32.9685606307072,-32.9495616429512,-32.9306687468747,-32.9118833262748,-32.8932068005332,-32.8746406205091,-32.8561862653987,-32.8378452416602,-32.819619078249,-32.8015093268556,-32.7835175570488,-32.7656453564968,-32.7478943267675,-32.7302660823732,-32.7127622492669,-32.6953844623866,-32.6781343644185,-32.6610136030167,-32.6440238311837,-32.6271667040141,-32.6104438784197,-32.593857011449,-32.577407759059,-32.561097773991,-32.5449287065349,-32.5289022020424,-32.513019899653,-32.4972834324004,-32.4816944255894,-32.4662544963883,-32.450965252109,-32.4358282904062,-32.4208451976835,-32.4060175494412,-32.3913469075284,-32.3768348228941,-32.3624828312612,-32.3482924550405,-32.3342652019397,-32.3204025637727,-32.3067060180899,-32.2931770255921,-32.2798170296387,-32.2666274581623,-32.2536097207586,-32.2407652093753,-32.2280952983604,-32.215601343122,-32.2032846809613,-32.1911466297858,-32.1791884881521,-32.1674115350145,-32.1558170310249,-32.1444062147571,-32.1331803063655,-32.1221405040735,-32.1112879873248,-32.1006239135457,-32.0901494196015,-32.0798656215345,-32.0697736141971,-32.059874471315,-32.0501692445153,-32.0406589650258,-32.0313446414857,-32.0222272615043,-32.0133077904663,-32.0045871723235,-31.9960663284122,-31.9877461591798,-31.9796275421177,-31.9717113326066,-31.9639983648231,-31.9564894490385,-31.9491853750216,-31.9420869095614,-31.9351947967403,-31.9285097590412,-31.9220324958899,-31.9157636849678,-31.9097039809623,-31.9038540167258,-31.8982144020886,-31.8927857248611,-31.8875685502042,-31.8825634206634,-31.8777708568932,-31.8731913562628,-31.8688253942371,-31.8646734234025,-31.8607358741386,-31.8570131546616,-31.8535056496117,-31.8502137223713,-31.8471377125489
-33.5625362563418,-33.5226284624978,-33.4837180451804,-33.445753153167,-33.4086845676567,-33.3724655748289,-33.337051843424,-33.3024013093895,-33.2684740660864,-33.2352322600123,-33.2026399910305,-33.1706632192644,-33.1392696748339,-33.1084287727259,-33.0781115323764,-33.0482905003729,-33.0189396774125,-32.9900344485133,-32.9615515170123,-32.9334688416543,-32.9057655764766,-32.8784220136264,-32.8514195294206,-32.8247405323439,-32.7983684140923,-32.7722875020289,-32.7464830154825,-32.7209410225988,-32.6956484002804,-32.6705927948177,-32.6457625857755,-32.6211468510335,-32.5967353328453,-32.5725184063253,-32.5484870491771,-32.5246328125206,-32.5009477935761,-32.4774246091658,-32.454056370795,-32.4308366602623,-32.4077595077293,-32.3848193691927,-32.3620111059937,-32.3393299649231,-32.316771559726,-32.2943318525041,-32.2720071367574,-32.2497940214924,-32.227689414222,-32.2056905075409,-32.1837947640624,-32.1619999028165,-32.1403038863652,-32.1187049084708,-32.0972013822624,-32.0757919287533,-32.0544753660477,-32.0332506996933,-32.0121171116494,-31.991073951813,-31.9701207292245,-31.949257102447,-31.9284828725839,-31.9077979743571,-31.8872024701034,-31.8666965412837,-31.8462804823097,-31.8259546940256,-31.8057196773697,-31.7855760276713,-31.7655244295391,-31.7455656500742,-31.725700534704,-31.7059300028368,-31.6862550413121,-31.6666767022104,-31.6471960967576,-31.6278143925557,-31.6085328088676,-31.5893526126162,-31.5702751165809,-31.5513016737453,-31.5324336764056,-31.5136725508194,-31.4950197556616,-31.4764767792964,-31.4580451366002,-31.4397263668052,-31.4215220300601,-31.4034337067832,-31.3854629942676,-31.3676115049809,-31.3498808647365,-31.332272710183,-31.3147886879949,-31.2974304516909,-31.2801996620628,-31.263097983279,-31.2461270833185,-31.2292886309051,-31.2125842958754,-31.1960157470968,-31.1795846507307,-31.1632926696811,-31.1471414621075,-31.1311326811841,-31.1152679734503,-31.0995489777944,-31.0839773249043,-31.0685546361104,-31.0532825226654,-31.0381625855128,-31.0231964141751,-31.0083855850159,-30.9937316623277,-30.9792361972325,-30.9649007264891,-30.9507267716688,-30.9367158407257,-30.9228694247361,-30.9091889990837,-30.8956760230379,-30.8823319387804,-30.8691581711197,-30.8561561272801,-30.8433271962845,-30.8306727496455,-30.8181941390095,-30.8058926983291,-30.793769741545,-30.7818265635386,-30.7700644395038,-30.7584846246712,-30.7470883542315,-30.7358768430817,-30.7248512859278,-30.7140128562969,-30.703362707444,-30.6929019710409,-30.6826317587402,-30.6725531598985,-30.6626672433297,-30.6529750559753,-30.6434776236062,-30.6341759499656,-30.6250710174858,-30.6161637869654,-30.6074551965914,-30.5989461639126,-30.5906375831127,-30.5825303274312,-30.5746252475872,-30.5669231719795,-30.5594249076403,-30.5521312387536,-30.545042927576,-30.5381607137442,-30.5314853151789,-30.5250174277857,-30.5187577237342,-30.5127068546196,-30.5068654488021,-30.5012341119076,-30.4958134285046,-30.4906039601741,-30.4856062453923,-30.4808208014279,-30.4762481226189,-30.471888680949,-30.4677429267954,-30.4638112865159,-30.4600941658072,-30.4565919464013,-30.453304990082,-30.4502336340971
-32.1459183931568,-32.1069059609323,-32.0688492215098,-32.0316982361337,-31.9954056104262,-31.9599263707536,-31.9252178465594,-31.891239558406,-31.8579531114219,-31.8253220950239,-31.7933119869064,-31.7618900615443,-31.7310253040981,-31.7006883281497,-31.6708512968687,-31.6414878492868,-31.6125730291444,-31.5840832176146,-31.5559960694151,-31.5282904518272,-31.5009463864241,-31.4739449947182,-31.4472684443473,-31.4208999001605,-31.394823476062,-31.3690241898702,-31.3434879200305,-31.3182013644778,-31.2931520016883,-31.2683280528068,-31.2437184464686,-31.2193127849519,-31.1951013118538,-31.1710748808889,-31.1472249273392,-31.1235434387668,-31.1000229298516,-31.0766564160219,-31.0534373893858,-31.0303597954415,-31.0074180116553,-30.9846068254686,-30.9619214149923,-30.9393573294643,-30.9169104714274,-30.8945770782666,-30.8723537069168,-30.8502372170978,-30.8282247563512,-30.806313745951,-30.7845018665619,-30.7627870454125,-30.741167443773,-30.719641444583,-30.6982076416277,-30.6768648281751,-30.6556119864627,-30.6344482780033,-30.6133730343187,-30.5923857471057,-30.5714860601338,-30.5506737612575,-30.529948773817,-30.5093111493325,-30.4887610608191,-30.4682987951119,-30.447924747223,-30.4276394128314,-30.4074433841072,-30.3873373423051,-30.3673220526157,-30.3473983606852,-30.3275671848978,-30.3078295144946,-30.2881864024388,-30.2686389627467,-30.2491883663764,-30.229835836492,-30.2105826449065,-30.191430109121,-30.1723795890897,-30.1534324819536,-30.1345902215486,-30.1158542743399,-30.0972261357909,-30.0787073292124,-30.0602994020369,-30.0420039240298,-30.0238224846961,-30.005756690865,-29.9878081652592,-29.9699785434759,-29.9522694733108,-29.9346826117953,-29.9172196241864,-29.8998821812828,-29.8826719601832,-29.8655906398496,-29.8486399010915,-29.8318214260929,-29.8151368955913,-29.7985879881867,-29.7821763796943,-29.7659037413286,-29.7497717389484,-29.7337820314528,-29.7179362718114,-29.7022361037112,-29.6866831620064,-29.6712790709163,-29.6560254459983,-29.640923889439,-29.6259759918442,-29.6111833321106,-29.5965474746551,-29.5820699699584,-29.5677523550264,-29.5535961509206,-29.5396028636908,-29.5257739832593,-29.5121109831076,-29.4986153199617,-29.4852884332856,-29.4721317451881,-29.4591466603781,-29.4463345633831,-29.4336968222776,-29.4212347854553,-29.4089497821673,-29.3968431223587,-29.3849160969807,-29.3731699758883,-29.3616060099497,-29.3502254298411,-29.3390294454683,-29.3280192460699,-29.3171960004707,-29.3065608565872,-29.2961149413836,-29.2858593607416,-29.2757951990411,-29.2659235195554,-29.2562453644694,-29.2467617534572,-29.2374736856865,-29.2283821379625,-29.2194880659413,-29.2107924023778,-29.2022960595603,-29.1939999271612,-29.1859048725358,-29.1780117417232,-29.1703213584094,-29.162834524276,-29.1555520185991,-29.1484745992314,-29.1416030016655,-29.1349379382518,-29.1284801003412,-29.1222301568916,-29.1161887546133,-29.1103565175133,-29.1047340477049,-29.099321925432,-29.0941207081942,-29.0891309317954,-29.0843531088219,-29.0797877313166,-29.075435267417,-29.071296163741,-29.067370844999,-29.0636597129279,-29.0601631480272,-29.056881507559,-29.0538151273566
-30.7304320232701,-30.6922772276801,-30.6550381238507,-30.6186666130341,-30.5831170565533,-30.5483461551531,-30.514312835923,-30.4809781435475,-30.448305138087,-30.4162587971759,-30.3848059232499,-30.3539150553684,-30.3235563861637,-30.293701681447,-30.2643242046784,-30.2353986453494,-30.2069010502179,-30.1788087582787,-30.1511003388638,-30.1237555326277,-30.0967551954794,-30.0700812452968,-30.0437166107989,-30.0176451835573,-29.9918517715733,-29.9663220558147,-29.9410425478392,-29.9160005507253,-29.8911841204911,-29.8665820304127,-29.8421837363549,-29.8179793440805,-29.7939595782435,-29.770115751927,-29.7464397389319,-29.7229239463536,-29.6995612890243,-29.6763451643935,-29.6532694297802,-29.6303283792447,-29.6075167229824,-29.5848295661811,-29.5622623904263,-29.5398110346213,-29.5174716773645,-29.4952408204313,-29.4731152720433,-29.4510921326216,-29.4291687785777,-29.4073428500698,-29.3856122363058,-29.3639750634398,-29.3424296822944,-29.3209746569045,-29.2996087533305,-29.2783309289141,-29.2571403227474,-29.2360362453085,-29.2150181699872,-29.194085723855,-29.1732386795734,-29.1524769470277,-29.1318005664965,-29.1112097001813,-29.0907046261302,-29.0702857321732,-29.0499535076323,-29.0297085392954,-29.0095515043973,-28.9894831665123,-28.9695043671695,-28.949616026265,-28.9298191306411,-28.9101147354902,-28.8905039562546,-28.8709879661531,-28.8515679906727,-28.8322453066593,-28.8130212352483,-28.7938971410576,-28.774874427362,-28.7559545339738,-28.7371389333697,-28.7184291284291,-28.6998266499629,-28.6813330534227,-28.6629499165859,-28.6446788371341,-28.6265214318662,-28.6084793321356,-28.5905541839509,-28.5727476445568,-28.5550613809603,-28.5374970692008,-28.5200563912391,-28.5027410344735,-28.4855526889719,-28.4684930476476,-28.4515638041266,-28.4347666503277,-28.4181032777111,-28.4015753734989,-28.3851846216242,-28.3689326998541,-28.3528212807564,-28.3368520288748,-28.321026601226,-28.3053466453541,-28.2898137996891,-28.2744296914768,-28.2591959369564,-28.2441141408692,-28.2291858944227,-28.2144127756546,-28.1997963499298,-28.1853381671756,-28.1710397623143,-28.1569026557169,-28.1429283512487,-28.1291183364958,-28.1154740826755,-28.1019970431686,-28.0886886548379,-28.0755503357419,-28.0625834867911,-28.0497894892482,-28.0371697069143,-28.0247254835513,-28.0124581437942,-28.0003689935181,-27.9884593176546,-27.9767303825082,-27.9651834332979,-27.9538196954711,-27.9426403734255,-27.9316466512857,-27.9208396928596,-27.9102206401637,-27.8997906148271,-27.8895507170948,-27.8795020259654,-27.8696455991855,-27.8599824728742,-27.8505136618886,-27.8412401593163,-27.8321629366024,-27.8232829439013,-27.8146011089084,-27.8061183382383,-27.7978355158549,-27.7897535041673,-27.7818731441203,-27.7741952541178,-27.7667206307752,-27.7594500486551,-27.7523842605628,-27.7455239964031,-27.7388699652333,-27.7324228531553,-27.726183324578,-27.7201520215598,-27.7143295642397,-27.7087165507776,-27.7033135571153,-27.698121137205,-27.6931398224263,-27.6883701227212,-27.6838125254658,-27.6794674964835,-27.6753354787108,-27.6714168940007,-27.6677121410772,-27.6642215975719,-27.6609456187639,-27.6578845372271
-29.3160333705803,-29.2787002462324,-29.2422444258909,-29.2066195819525,-29.1717817644993,-29.1376892859188,-29.104302610355,-29.0715842493924,-29.0394986624736,-29.0080121627817,-28.9770928274583,-28.9467104122614,-28.9168362709151,-28.8874432775537,-28.8585057540298,-28.8299994000168,-28.8019012268478,-28.774189494564,-28.7468436517509,-28.7198442788742,-28.6931730337483,-28.666812599921,-28.6407466375694,-28.6149597363667,-28.589437371636,-28.5641658613016,-28.5391323252163,-28.5143246474765,-28.4897314393276,-28.46534200379,-28.4411463027434,-28.4171349257292,-28.3932990590467,-28.369630456361,-28.3461214128086,-28.3227647374472,-28.2995537288937,-28.2764821511324,-28.2535442116042,-28.2307345384745,-28.2080481606871,-28.1854804883711,-28.1630272931806,-28.1406846915049,-28.1184491268095,-28.0963173532164,-28.0742864201295,-28.0523536573219,-28.0305166609417,-28.0087732799085,-27.9871216028874,-27.96555994615,-27.9440868415406,-27.9227010258651,-27.9014014296408,-27.8801871670209,-27.8590575260619,-27.8380119597725,-27.8170500764335,-27.7961716321433,-27.7753765220447,-27.7546647725411,-27.7340365343491,-27.7134920757042,-27.6930317746254,-27.6726561132407,-27.6523656718684,-27.6321611228763,-27.6120432246381,-27.5920128172637,-27.5720708169535,-27.5522182104883,-27.5324560526354,-27.5127854588609,-27.4932076043074,-27.4737237166754,-27.4543350746582,-27.4350430044161,-27.4158488733089,-27.3967540896157,-27.3777600984474,-27.3588683785152,-27.3400804383552,-27.3213978156694,-27.3028220731386,-27.2843547959279,-27.2659975906219,-27.2477520812463,-27.2296199083134,-27.2116027267986,-27.193702203008,-27.1759200142158,-27.1582578459096,-27.1407173903769,-27.1233003451349,-27.1060084117323,-27.0888432935149,-27.0718066945379,-27.0549003194945,-27.0381258695724,-27.0214850448109,-27.0049795405878,-26.9886110468112,-26.9723812480836,-26.9562918213298,-26.9403444358609,-26.9245407517575,-26.9088824201221,-26.893371081399,-26.878008364244,-26.8627958861925,-26.847735252093,-26.8328280533158,-26.8180758680126,-26.8034802598191,-26.7890427773658,-26.7747649544883,-26.7606483081395,-26.7466943406828,-26.7329045364483,-26.7192803633045,-26.7058232715781,-26.6925346937049,-26.6794160447936,-26.666468720408,-26.6536940986455,-26.6410935372453,-26.628668376082,-26.6164199348811,-26.6043495141234,-26.5924583935778,-26.5807478342343,-26.56921907586,-26.5578733384088,-26.5467118207418,-26.535735701441,-26.5249461380269,-26.5143442674121,-26.5039312050791,-26.4937080458078,-26.4836758623078,-26.4738357065759,-26.4641886093965,-26.454735579522,-26.4454776043295,-26.436415649825,-26.4275506597932,-26.4188835569781,-26.4104152416643,-26.4021465929964,-26.3940784679153,-26.3862117016236,-26.3785471072735,-26.3710854765669,-26.3638275786579,-26.3567741612291,-26.349925949982,-26.3432836482471,-26.3368479377981,-26.3306194784334,-26.3245989081319,-26.3187868421915,-26.3131838750655,-26.307790577458,-26.3026075004602,-26.2976351711842,-26.2928740961985,-26.2883247591266,-26.2839876222531,-26.2798631252486,-26.2759516867457,-26.2722537031258,-26.2687695489506,-26.2654995760809,-26.2624441156556
-27.9026808233558,-27.8661350860474,-27.8304298121649,-27.7955203784863,-27.7613644607059,-27.7279219218524,-27.695154705436,-27.6630267344143,-27.6315038149166,-27.6005535451581,-27.5701452284825,-27.5402497912555,-27.5108397041288,-27.4818889076756,-27.4533727415389,-27.4252678769714,-27.3975522530085,-27.3702050152548,-27.3432064580238,-27.3165379691089,-27.2901819770458,-27.2641219015916,-27.2383421056811,-27.2128278505461,-27.1875652522023,-27.1625412404235,-27.1377435199386,-27.1131605328704,-27.0887814230834,-27.0645960029285,-27.0405947203591,-27.0167686288848,-26.9931093575453,-26.9696090835987,-26.9462605060775,-26.9230568193754,-26.8999916906301,-26.8770592353777,-26.8542539962232,-26.8315709217676,-26.8090053467412,-26.786552972751,-26.7642098499345,-26.7419723602372,-26.7198372005327,-26.6978013663325,-26.6758621378671,-26.6540170647977,-26.6322639527877,-26.6106008505134,-26.5890260371517,-26.5675380105831,-26.5461354757479,-26.5248173339583,-26.5035826729048,-26.4824307559744,-26.4613610138565,-26.4403730347149,-26.4194665559272,-26.3986414559324,-26.3778977465067,-26.3572355647229,-26.3366551671873,-26.3161569212521,-26.2957413005269,-26.2754088773198,-26.2551603175425,-26.2349963746318,-26.2149178837489,-26.1949257579814,-26.1750209828321,-26.1552046102339,-26.1354777565592,-26.1158415963415,-26.0962973586907,-26.0768463249765,-26.0574898224405,-26.0382292228892,-26.0190659380747,-26.0000014176314,-25.9810371447489,-25.9621746342149,-25.9434154291295,-25.9247610987132,-25.9062132352691,-25.8877734523982,-25.8694433823065,-25.8512246730984,-25.8331189879432,-25.8151280024452,-25.7972534029358,-25.7794968839029,-25.7618601473303,-25.7443449009743,-25.7269528558706,-25.709685725898,-25.6925452259731,-25.6755330709604,-25.6586509743788,-25.6419006462149,-25.6252837932592,-25.6088021175979,-25.5924573150428,-25.5762510744239,-25.5601850771749,-25.5442609954227,-25.5284804923422,-25.512845220483,-25.4973568220248,-25.4820169261284,-25.4668271508764,-25.4517891005983,-25.4369043656293,-25.4221745232193,-25.4076011352406,-25.3931857482603,-25.3789298932466,-25.3648350849223,-25.3509028221159,-25.3371345861398,-25.3235318398106,-25.3100960310663,-25.2968285878146,-25.2837309193708,-25.2708044179464,-25.2580504560322,-25.2454703868949,-25.2330655448778,-25.2208372440985,-25.2087867799763,-25.1969154265664,-25.185224438903,-25.1737150512985,-25.16238847754,-25.1512459108909,-25.1402885237021,-25.1295174678498,-25.1189338739297,-25.1085388511935,-25.0983334882955,-25.0883188525197,-25.0784959897814,-25.0688659240493,-25.0594296586173,-25.0501881749368,-25.0411424325798,-25.0322933701455,-25.0236419040305,-25.0151889294965,-25.006935319001,-24.9988819247628,-24.9910295757064,-24.983379080143,-24.9759312242927,-24.9686867717563,-24.9616464651639,-24.9548110252506,-24.9481811504984,-24.9417575182506,-24.9355407827694,-24.9295315779464,-24.9237305145365,-24.9181381823334,-24.9127551489888,-24.907581960363,-24.9026191401452,-24.8978671910924,-24.8933265931245,-24.8889978047445,-24.8848812633441,-24.8809773837395,-24.8772865588021,-24.8738091606148,-24.8705455388533,-24.8674960214585
-26.4903348271966,-26.454543798995,-26.4195578774916,-26.3853340797575,-26.35183164626,-26.3190119324614,-26.2868383056134,-26.2552760468238,-26.2242922582264,-26.1938557745694,-26.1639370792045,-26.1345082245896,-26.1055427560693,-26.0770156399491,-26.0489031949369,-26.0211830270825,-25.9938339675535,-25.9668360135681,-25.9401702724488,-25.9138189083158,-25.8877650908362,-25.8619929474939,-25.8364875168367,-25.8112347051002,-25.7862212441636,-25.761434652098,-25.736863194858,-25.7124958507626,-25.6883222756941,-25.6643327706707,-25.6405182504084,-25.6168702134743,-25.5933807147068,-25.5700423371452,-25.5468481671505,-25.5237917696674,-25.5008671645645,-25.4780688044624,-25.4553915535502,-25.4328306677729,-25.410381774124,-25.3880408538701,-25.3658042239885,-25.3436685205901,-25.3216306827171,-25.2996879376884,-25.2778377859175,-25.2560779873285,-25.2344065480155,-25.2128217076875,-25.1913219275972,-25.1699058785902,-25.1485724313763,-25.1273206440376,-25.1061497540757,-25.0850591675648,-25.0640484504137,-25.0431173201495,-25.0222656366355,-25.0014933951153,-24.9808007180476,-24.9601878482063,-24.939655141605,-24.9192030611036,-24.8988321703473,-24.8785431265297,-24.8583366774011,-24.8382136527835,-24.8181749608522,-24.798221584177,-24.7783545720908,-24.7585750392107,-24.7388841597975,-24.7192831631586,-24.6997733314673,-24.6803559936737,-24.6610325238524,-24.6418043366622,-24.6226728855096,-24.6036396579697,-24.5847061733045,-24.5658739797002,-24.5471446526719,-24.5285197900399,-24.5100010123635,-24.4915899585109,-24.4732882846194,-24.4550976616362,-24.4370197729265,-24.4190563131415,-24.4012089858031,-24.3834795016797,-24.3658695782444,-24.3483809358065,-24.331015298267,-24.3137743910409,-24.2966599381658,-24.2796736641,-24.2628172900322,-24.2460925334902,-24.2295011072273,-24.2130447182991,-24.1967250672468,-24.1805438467474,-24.1645027408871,-24.1486034245254,-24.1328475622613,-24.1172368080859,-24.1017728038131,-24.0864571791379,-24.071291551855,-24.0562775242961,-24.0414166860972,-24.0267106122667,-24.0121608619205,-23.9977689791938,-23.9835364917841,-23.969464911618,-23.9555557327317,-23.941810432851,-23.9282304716916,-23.9148172908376,-23.9015723139645,-23.8884969461703,-23.8755925738392,-23.8628605642134,-23.8503022651996,-23.8379190054017,-23.8257120934971,-23.8136828183719,-23.8018324490959,-23.7901622338045,-23.7786734010666,-23.7673671586208,-23.7562446932641,-23.7453071713572,-23.7345557376818,-23.7239915176176,-23.7136156134875,-23.7034291082582,-23.6934330623357,-23.6836285147039,-23.6740164847506,-23.6645979684419,-23.6553739412421,-23.6463453568808,-23.6375131475505,-23.6288782240786,-23.6204414752145,-23.61220376814,-23.6041659484176,-23.5963288408601,-23.5886932469473,-23.5812599475756,-23.5740297014093,-23.5670032458279,-23.5601812958043,-23.5535645455891,-23.5471536665198,-23.540949309123,-23.5349521020792,-23.5291626518508,-23.5235815436437,-23.5182093408024,-23.5130465852181,-23.5080937970148,-23.5033514741541,-23.4988200934581,-23.4945001104413,-23.4903919577467,-23.4864960482032,-23.4828127713132,-23.4793424957614,-23.4760855690737,-23.4730423159503
-25.0789577835232,-25.043890321408,-25.0095940322389,-24.9760275123467,-24.9431515083068,-24.910928812129,-24.8793241611672,-24.8483041441658,-24.8178371101379,-24.7878930839863,-24.7584436845265,-24.7294620476848,-24.7009227529034,-24.6728017532737,-24.645076309615,-24.6177249267912,-24.5907272940554,-24.5640642277558,-24.5377176173172,-24.511670373051,-24.4859063774447,-24.4604104381538,-24.4351682428872,-24.4101663180947,-24.3853919876188,-24.3608333342899,-24.3364791637834,-24.3123189692869,-24.2883428983996,-24.2645417214186,-24.2409068009323,-24.2174300632751,-24.1941039714543,-24.1709214982407,-24.1478761019088,-24.1249617018426,-24.1021726567912,-24.0795037426507,-24.0569501319461,-24.0345073745924,-24.0121713782494,-23.9899383920837,-23.9678049879539,-23.9457680454907,-23.9238247360328,-23.9019725081374,-23.8802090729621,-23.8585323917545,-23.8369406619221,-23.8154323056939,-23.794005958109,-23.7726604558218,-23.7513948266645,-23.7302082790778,-23.709100193224,-23.6880701111258,-23.6671177278718,-23.6462428836321,-23.6254455550589,-23.6047258483875,-23.5840839916266,-23.5635203273222,-23.5430353065393,-23.522629482285,-23.5023035038716,-23.4820581093392,-23.4618941233593,-23.4418124481151,-23.4218140609529,-23.4019000085999,-23.3820714032176,-23.3623294169542,-23.3426752782347,-23.3231102693103,-23.3036357200892,-23.2842530060872,-23.2649635443381,-23.2457687907296,-23.2266702359253,-23.2076694033993,-23.1887678461514,-23.1699671441364,-23.1512689012683,-23.1326747436029,-23.1141863165097,-23.0958052827333,-23.0775333205445,-23.0593721207948,-23.0413233858504,-23.0233888274142,-23.0055701653522,-22.9878691249905,-22.9702874364477,-22.9528268322555,-22.9354890478128,-22.9182758170999,-22.9011888742626,-22.8842299507245,-22.8674007742933,-22.8507030685763,-22.8341385514311,-22.8177089339615,-22.8014159201581,-22.7852612057774,-22.7692464765628,-22.7533734090759,-22.7376436684546,-22.7220589086426,-22.7066207715003,-22.6913308858931,-22.6761908673908,-22.6612023176584,-22.6463668236147,-22.6316859574171,-22.6171612751581,-22.6027943181494,-22.5885866099903,-22.5745396585135,-22.5606549535065,-22.5469339683374,-22.5333781575614,-22.5199889578876,-22.506767788135,-22.4937160476717,-22.4808351171215,-22.4681263583918,-22.455591113429,-22.4432307043207,-22.4310464340427,-22.4190395855902,-22.4072114209831,-22.3955631826647,-22.3840960924151,-22.372811351384,-22.3617101402679,-22.3507936185136,-22.340062925178,-22.3295191778175,-22.3191634732785,-22.3089968872576,-22.2990204737967,-22.2892352660472,-22.2796422766988,-22.2702424944321,-22.2610368893893,-22.2520264085404,-22.2432119779639,-22.2345945024416,-22.2261748641046,-22.2179539250576,-22.2099325248992,-22.2021114813218,-22.1944915913681,-22.1870736300396,-22.1798583503404,-22.1728464846078,-22.1660387424361,-22.1594358122807,-22.1530383615729,-22.1468470353496,-22.1408624574408,-22.1350852298495,-22.1295159334184,-22.1241551270821,-22.1190033485415,-22.1140611135513,-22.1093289168389,-22.1048072308809,-22.1004965080029,-22.0963971774656,-22.0925096481031,-22.0888343068698,-22.085371520015,-22.0821216312919,-22.0790849634714
-23.6685139527399,-23.6341403804691,-23.6005054123078,-23.5675691651148,-23.5352938355444,-23.503643598077,-23.4725845095903,-23.4420844167245,-23.4121128690953,-23.3826410368917,-23.3536416315662,-23.3250888317183,-23.2969582120681,-23.2692266747628,-23.241872387047,-23.2148747184998,-23.1882141837769,-23.1618723873001,-23.135831970041,-23.110076560391,-23.0845907258989,-23.0593599278637,-23.0343704788344,-23.009609500787,-22.9850648862739,-22.9607252612594,-22.9365799497974,-22.9126189394874,-22.8888328501237,-22.8652129028727,-22.8417508904017,-22.8184391494989,-22.7952705348594,-22.7722383931874,-22.7493365393554,-22.726559233509,-22.7039011586708,-22.6813574008624,-22.6589234281967,-22.6365950720696,-22.6143685095367,-22.5922402455151,-22.5702070967655,-22.5482661757289,-22.5264148759411,-22.5046508574211,-22.4829720333328,-22.4613765569304,-22.4398628086363,-22.4184293852803,-22.3970750874863,-22.3757989102485,-22.3546000313817,-22.3334778030863,-22.3124317409792,-22.2914615166797,-22.270566948278,-22.2497479929258,-22.2290047385978,-22.2083373964371,-22.1877462947388,-22.1672318717102,-22.1467946679148,-22.1264353220554,-22.1061545640684,-22.0859532093345,-22.0658321542089,-22.045792370497,-22.0258349004031,-22.0059608515517,-21.9861713941997,-21.9664677552869,-21.9468512154246,-21.9273231045996,-21.907884798951,-21.8885377168806,-21.8692833155468,-21.8501230890274,-21.8310585638301,-21.8120912965536,-21.7932228709218,-21.7744548964094,-21.7557890039639,-21.7372268445274,-21.7187700875691,-21.7004204168529,-21.6821795307876,-21.6640491390163,-21.6460309609801,-21.6281267238685,-21.6103381613944,-21.5926670123509,-21.5751150184308,-21.5576839233948,-21.540375470775,-21.5231914042892,-21.5061334650038,-21.4892033906413,-21.4724029150172,-21.4557337661293,-21.4391976661811,-21.4227963294277,-21.406531461959,-21.3904047612715,-21.3744179142521,-21.3585725981656,-21.3428704780677,-21.3273132071947,-21.3119024262496,-21.2966397623177,-21.28152682918,-21.2665652257222,-21.2517565359928,-21.2371023289861,-21.2226041571923,-21.2082635577186,-21.1940820500591,-21.1800611371555,-21.1662023048063,-21.1525070202444,-21.1389767333569,-21.1256128755645,-21.1124168596177,-21.0993900790064,-21.0865339087914,-21.0738497039347,-21.0613388008442,-21.0490025153661,-21.0368421435608,-21.0248589618391,-21.0130542260394,-21.0014291716533,-20.9899850138672,-20.9787229468717,-20.9676441448565,-20.9567497600956,-20.9460409253255,-20.9355187511343,-20.925184327209,-20.9150387233639,-20.9050829858747,-20.8953181423394,-20.8857451973018,-20.8763651345051,-20.8671789166002,-20.8581874847168,-20.8493917578941,-20.8407926346728,-20.832390992106,-20.8241876847317,-20.8161835461972,-20.8083793894383,-20.8007760048852,-20.7933741619293,-20.7861746077629,-20.7791780693318,-20.772385251327,-20.7657968366682,-20.7594134872433,-20.7532358439544,-20.7472645250449,-20.7415001283465,-20.7359432300961,-20.7305943848231,-20.7254541255691,-20.7205229641594,-20.7158013916706,-20.7112898769431,-20.7069888677343,-20.7028987908257,-20.6990200512647,-20.6953530332648,-20.6918980991312,-20.6886555907502,-20.6856258277631
-22.2589693622002,-22.2252614048361,-22.1922607926953,-22.159929106131,-22.128229937725,-22.097128793581,-22.0665930001055,-22.0365916153296,-22.0070953444456,-21.9780764596548,-21.9495087245419,-21.92136732085,-21.8936287804344,-21.866270919781,-21.8392727774642,-21.8126145552659,-21.7862775618495,-21.7602441589933,-21.7344977114463,-21.7090225375274,-21.6838038634522,-21.6588277793465,-21.6340811980271,-21.609551813716,-21.5852280662394,-21.5610991028572,-21.5371547454358,-21.5133854570076,-21.4897823108502,-21.4663369605256,-21.443041612021,-21.4198889963655,-21.3968723436741,-21.3739853596077,-21.3512222015208,-21.3285774557521,-21.306046116779,-21.2836235677328,-21.2613055595738,-21.2390881943187,-21.2169679062027,-21.1949414457951,-21.1730058636934,-21.1511584955162,-21.1293969472732,-21.107719081528,-21.0861230041242,-21.064607051967,-21.0431697807129,-21.0218099532244,-21.0005265291175,-20.9793186538143,-20.9581856487463,-20.9371270021389,-20.9161423596987,-20.8952315161806,-20.8743944070536,-20.853631100132,-20.8329417893565,-20.8123267863518,-20.7917865140386,-20.7713215010454,-20.7509323733942,-20.7306198508348,-20.7103847397754,-20.6902279285289,-20.6701503820409,-20.6501531368606,-20.6302372960825,-20.610404026106,-20.5906545510824,-20.5709901497322,-20.5514121509229,-20.5319219303982,-20.5125209068806,-20.4932105394771,-20.4739923228133,-20.454867786407,-20.4358384896133,-20.416906020005,-20.3980719909007,-20.3793380377195,-20.3607058167257,-20.3421770021893,-20.3237532846382,-20.3054363681631,-20.2872279690517,-20.2691298137597,-20.2511436373782,-20.2332711808432,-20.2155141908587,-20.1978744172182,-20.1803536125037,-20.1629535289914,-20.1456759197312,-20.1285225340994,-20.1114951204873,-20.0945954214357,-20.0778251751267,-20.0611861135448,-20.0446799618944,-20.0283084361578,-20.0120732442743,-19.9959760843289,-19.9800186441061,-19.9642025994391,-19.9485296150968,-19.9330013431036,-19.917619421754,-19.9023854762408,-19.8873011171797,-19.8723679404534,-19.8575875268384,-19.8429614407317,-19.8284912312525,-19.8141784302769,-19.8000245527228,-19.7860310966111,-19.77219954205,-19.7585313512577,-19.7450279680151,-19.7316908178845,-19.7185213075328,-19.7055208241471,-19.6926907366509,-19.6800323932082,-19.6675471235946,-19.6552362372968,-19.643101023518,-19.6311427513954,-19.6193626700399,-19.6077620084303,-19.5963419741186,-19.5851037549393,-19.574048517099,-19.5631774069717,-19.5524915495847,-19.5419920487897,-19.5316799870447,-19.5215564271627,-19.5116224093892,-19.5018789532503,-19.4923270567988,-19.4829676979206,-19.4738018316516,-19.464830392324,-19.456054293419,-19.4474744266021,-19.4390916619422,-19.4309068481924,-19.422920813956,-19.4151343642277,-19.407548284571,-19.4001633381709,-19.392980267321,-19.3859997923894,-19.3792226129112,-19.3726494067846,-19.3662808306694,-19.3601175199645,-19.3541600888055,-19.34840912956,-19.3428652138778,-19.3375288920395,-19.3324006931973,-19.3274811244367,-19.3227706727848,-19.3182698035783,-19.3139789609209,-19.3098985677017,-19.3060290258078,-19.3023707164492,-19.2989239986605,-19.295689211368,-19.292666672085
-20.8502917185674,-20.8172224410715,-20.7848305060867,-20.7530789033689,-20.7219325697457,-20.6913582931597,-20.6613246224289,-20.6318017819561,-20.6027615889626,-20.5741773768024,-20.5460239213737,-20.5182773700035,-20.4909151762422,-20.4639160354349,-20.4372598250263,-20.4109275473307,-20.3849012747954,-20.3591640982463,-20.3337000777154,-20.3084941954536,-20.283532310911,-20.2588011191465,-20.2342881091442,-20.2099815261141,-20.1858703349834,-20.1619441845444,-20.1381933747561,-20.1146088253038,-20.0911820447677,-20.0679051025618,-20.0447706008319,-20.0217716487716,-19.9989018378737,-19.9761552174764,-19.9535262733259,-19.9310099048108,-19.9086014052683,-19.8862964420759,-19.8640910380972,-19.8419815536921,-19.8199646700302,-19.7980373726348,-19.7761969362199,-19.7544409096704,-19.7327671023739,-19.7111735704887,-19.689658604185,-19.6682207160433,-19.64685862866,-19.6255712638863,-19.6043577325453,-19.5832173238902,-19.5621494961968,-19.5411538678325,-19.5202302079094,-19.4993784285982,-19.4785985764193,-19.4578908257235,-19.4372554703025,-19.4166929171258,-19.3962036795025,-19.3757883712712,-19.3554476999415,-19.3351824615765,-19.3149935358534,-19.2948818785729,-19.274848520397,-19.2548945585413,-19.2350211544216,-19.2152295285925,-19.1955209566001,-19.1758967656539,-19.156358329871,-19.1369070682157,-19.1175444389664,-19.0982719386057,-19.0790910975456,-19.0600034779275,-19.0410106700146,-19.0221142899134,-19.0033159773597,-18.9846173927727,-18.9660202153374,-18.9475261408872,-18.9291368790595,-18.9108541524015,-18.8926796933154,-18.8746152435657,-18.8566625520666,-18.838823372498,-18.821099462213,-18.8034925817356,-18.7860044920247,-18.7686369537569,-18.7513917265173,-18.7342705660828,-18.7172752255279,-18.7004074515666,-18.6836689867835,-18.6670615646854,-18.6505869125021,-18.6342467482094,-18.6180427796583,-18.6019767050861,-18.586050211582,-18.5702649739922,-18.5546226552159,-18.5391249050672,-18.5237733599788,-18.5085696410542,-18.4935153560639,-18.4786120972544,-18.4638614403748,-18.449264946245,-18.4348241588267,-18.4205406048539,-18.4064157942534,-18.3924512191893,-18.3786483542209,-18.3650086550839,-18.3515335600742,-18.3382244878936,-18.3250828387514,-18.3121099934012,-18.2993073139531,-18.2866761420535,-18.2742178000432,-18.2619335903991,-18.2498247953744,-18.237892677075,-18.2261384772656,-18.2145634175152,-18.2031686987004,-18.1919555007673,-18.1809249833622,-18.1700782849021,-18.1594165233442,-18.1489407952691,-18.1386521768123,-18.1285517223338,-18.118640465758,-18.1089194196137,-18.0993895751066,-18.0900519022437,-18.0809073501073,-18.071956846414,-18.0632012973089,-18.0546415880513,-18.0462785827777,-18.0381131235359,-18.0301460321766,-18.0223781085318,-18.0148101314346,-18.007442858319,-18.0002770256484,-17.9933133483169,-17.9865525200842,-17.9799952134651,-17.9736420801092,-17.9674937501942,-17.9615508326332,-17.955813915308,-17.9502835650202,-17.9449603279553,-17.9398447277337,-17.9349372687419,-17.9302384330035,-17.9257486819777,-17.9214684564947,-17.9173981756332,-17.9135382378371,-17.9098890211589,-17.9064508814056,-17.9032241550916,-17.9002091568355
-19.442450324839,-19.4099940723522,-19.3781863650169,-19.3469915500361,-19.3163758587174,-19.2863073130864,-19.2567556392974,-19.2276921842494,-19.1990898360861,-19.1709229496888,-19.1431672750982,-19.1157998893505,-19.0887991326441,-19.062144546428,-19.0358168153104,-19.0097977116348,-18.9840700428926,-18.9586176007984,-18.9334251144369,-18.9084782043807,-18.883763339328,-18.8592677952588,-18.8349796158453,-18.8108875757518,-18.7869811440116,-18.7632504513911,-18.7396862578723,-18.7162799211291,-18.6930233679999,-18.6699090670091,-18.6469300009904,-18.6240796421292,-18.6013519280797,-18.5787412387841,-18.5562423742382,-18.5338505343519,-18.5115612988517,-18.4893706080316,-18.4672747446022,-18.4452703170186,-18.4233542425352,-18.4015237318194,-18.3797762738703,-18.3581096220133,-18.3365217797193,-18.3150109885157,-18.293575714719,-18.2722146386104,-18.2509266422447,-18.2297107994677,-18.2085663651094,-18.1874927657113,-18.1664895901357,-18.1455565803195,-18.1246936234379,-18.1039007426648,-18.0831780914197,-18.0625259437744,-18.0419446897495,-18.0214348259579,-18.0009969515315,-17.980631761499,-17.9603400404743,-17.9401226564444,-17.9199805576074,-17.8999147658957,-17.8799263715802,-17.8600165305044,-17.8401864584563,-17.8204374269464,-17.8007707601009,-17.7811878302194,-17.7616900542596,-17.7422788903961,-17.7229558351521,-17.7037224199777,-17.6845802077204,-17.6655307914698,-17.6465757896326,-17.6277168444131,-17.6089556210061,-17.5902938021885,-17.5717330879843,-17.5532751934276,-17.5349218468124,-17.5166747862657,-17.4985357595162,-17.4805065219238,-17.4625888339999,-17.4447844605721,-17.4270951696464,-17.4095227297152,-17.392068909911,-17.3747354773009,-17.3575241973592,-17.3404368304034,-17.323475133718,-17.3066408576251,-17.2899357462604,-17.2733615354954,-17.2569199531023,-17.240612717191,-17.2244415360121,-17.2084081065495,-17.19251411428,-17.1767612327441,-17.1611511218834,-17.1456854292336,-17.1303657867505,-17.1151938127533,-17.1001711114593,-17.0852992694945,-17.0705798590383,-17.0560144350862,-17.0416045364666,-17.0273516843132,-17.0132573828311,-16.9993231183524,-16.9855503586393,-16.9719405539209,-16.958495134772,-16.9452155139903,-16.9321030847625,-16.9191592208604,-16.9063852769558,-16.8937825877379,-16.8813524686231,-16.8690962143345,-16.8570150997683,-16.8451103796089,-16.8333832885945,-16.8218350403187,-16.8104668278641,-16.7992798245203,-16.788275182242,-16.7774540314518,-16.7668174831968,-16.7563666267033,-16.7461025300274,-16.7360262412282,-16.7261387861266,-16.7164411704379,-16.7069343780919,-16.6976193722237,-16.6884970949659,-16.6795684668589,-16.6708343875307,-16.6622957356896,-16.6539533679506,-16.6458081213524,-16.6378608103649,-16.6301122287982,-16.622563149384,-16.6152143234423,-16.6080664819309,-16.6011203332879,-16.5943765665295,-16.587835848286,-16.5814988248335,-16.5753661210333,-16.5694383409593,-16.5637160676988,-16.5581998635194,-16.5528902691539,-16.5477878047538,-16.5428929700539,-16.5382062430648,-16.5337280812223,-16.5294589217001,-16.5253991798972,-16.5215492508313,-16.517909509197,-16.514480308285,-16.5112619809227,-16.5082548391501
-18.0354160009326,-18.0035483421252,-17.9723015878128,-17.9416413928786,-17.9115352346843,-17.8819523242223,-17.8528635209944,-17.8242412528222,-17.7960594389605,-17.7682934174932,-17.7409198765805,-17.7139167879086,-17.6872633451525,-17.6609399039412,-17.6349279257208,-17.6092099236168,-17.5837694120989,-17.5585908577045,-17.5336596326132,-17.5089619713217,-17.4844849285009,-17.4602163385232,-17.4361447786376,-17.412259531391,-17.3885505516524,-17.3650084329175,-17.3416243764056,-17.318390160905,-17.2952981154011,-17.272341091075,-17.249512436458,-17.2268059720799,-17.2042159676576,-17.1817371198385,-17.1593645312111,-17.1370936893305,-17.1149204481344,-17.092841009534,-17.0708519055667,-17.048949981928,-17.0271323822872,-17.0053965327916,-16.9837401271955,-16.9621611144354,-16.9406576839629,-16.9192282541435,-16.8978714598058,-16.8765861412089,-16.8553713329717,-16.8342262535746,-16.8131502955565,-16.7921430164048,-16.7712041289936,-16.7503334933172,-16.7295311085612,-16.7087971044973,-16.68813173454,-16.6675353690553,-16.647008487917,-16.6265516743345,-16.6061656084002,-16.5858510616062,-16.5656088910598,-16.5454400340939,-16.5253455036994,-16.505326381874,-16.485383817829,-16.4655190215199,-16.4457332594898,-16.4260278518282,-16.4064041678573,-16.3868636219963,-16.3674076715836,-16.3480378117492,-16.3287555740921,-16.3095625225392,-16.2904602505568,-16.271450378853,-16.2525345526268,-16.2337144391597,-16.2149917250703,-16.1963681146366,-16.177845326852,-16.1594250946896,-16.1411091617881,-16.1228992814082,-16.1047972150859,-16.086804729336,-16.0689235962595,-16.0511555898238,-16.0335024867215,-16.0159660627183,-15.9985480935658,-15.9812503519437,-15.96407460749,-15.9470226248102,-15.9300961639459,-15.9132969772325,-15.8966268100153,-15.8800873991891,-15.8636804727898,-15.8474077481444,-15.8312709326547,-15.8152717212349,-15.7994117976849,-15.7836928323582,-15.7681164825298,-15.7526843918316,-15.7373981886013,-15.7222594875262,-15.7072698865098,-15.6924309681964,-15.6777442995119,-15.6632114298118,-15.6488338921104,-15.6346132015366,-15.6205508558634,-15.6066483348712,-15.5929071000597,-15.5793285944572,-15.5659142419497,-15.5526654481318,-15.5395835989749,-15.5266700609813,-15.5139261811217,-15.5013532868847,-15.4889526859884,-15.4767256654055,-15.4646734928717,-15.4527974152225,-15.4410986588705,-15.429578430115,-15.4182379150374,-15.4070782778738,-15.3961006636813,-15.3853061956692,-15.3746959759901,-15.3642710871666,-15.3540325898708,-15.3439815239328,-15.3341189083526,-15.3244457411672,-15.3149629992807,-15.3056716385481,-15.2965725939113,-15.2876667789399,-15.2789550866295,-15.2704383882669,-15.2621175348322,-15.2539933558009,-15.2460666591792,-15.2383382330435,-15.230808843393,-15.2234792360484,-15.2163501349724,-15.2094222442449,-15.2026962459549,-15.1961728019093,-15.1898525525431,-15.18373611763,-15.177824096598,-15.1721170671166,-15.1666155862558,-15.1613201911589,-15.156231396995,-15.1513496989259,-15.146675571246,-15.1422094672841,-15.1379518201807,-15.13390304211,-15.1300635246091,-15.1264336386831,-15.123013734873,-15.1198041427973,-15.1168051719903
-16.6291610081116,-16.5978586813113,-16.567150728642,-16.5370040639654,-16.5073873654427,-16.4782709885785,-16.4496268845531,-16.4214285219918,-16.3936508130217,-16.3662700423889,-16.3392638010399,-16.3126109222831,-16.2862914210553,-16.2602864366171,-16.2345781778646,-16.2091498714132,-16.1839857111781,-16.1590708126437,-16.134391167353,-16.1099335999459,-16.0856857281898,-16.0616359239887,-16.0377732767917,-16.0140875585084,-15.9905691896832,-15.9672092088505,-15.9439992411418,-15.9209314702884,-15.8979986105888,-15.8751938814302,-15.8525109816862,-15.8299440666387,-15.8074877247465,-15.7851369566905,-15.7628871542995,-15.7407340814292,-15.7186738550503,-15.6967029276939,-15.6748180700912,-15.6530163555645,-15.6312951439494,-15.6096520677372,-15.5880850172698,-15.5665921278776,-15.5451717670052,-15.5238225221171,-15.502543188901,-15.4813327604933,-15.46019041695,-15.4391155147656,-15.4181075781504,-15.3971662889732,-15.376291478537,-15.3554831191778,-15.3347413160936,-15.3140663010499,-15.2934584226269,-15.2729181424966,-15.2524460256933,-15.2320427370053,-15.2117090336518,-15.1914457596718,-15.1712538413412,-15.1511342805388,-15.1310881506927,-15.1111165927697,-15.0912208096791,-15.0714020626426,-15.051661666235,-15.0320009860842,-15.0124214334566,-14.9929244626015,-14.9735115681787,-14.9541842803216,-14.9349441625292,-14.9157928094514,-14.8967318424218,-14.8777629086026,-14.8588876774174,-14.8401078379975,-14.8214250984284,-14.8028411811374,-14.7843578232168,-14.7659767731337,-14.7476997892086,-14.729528638328,-14.711465092713,-14.6935109303774,-14.6756679321377,-14.6579378810841,-14.6403225605546,-14.6228237529798,-14.6054432389388,-14.5881827955765,-14.5710441962834,-14.5540292084314,-14.5371395931509,-14.5203771047346,-14.5037434890189,-14.4872404826961,-14.470869812841,-14.4546331954869,-14.43853233619,-14.4225689275145,-14.4067446504959,-14.3910611718451,-14.3755201453785,-14.3601232100713,-14.3448719901604,-14.3297680951108,-14.3148131180891,-14.300008636216,-14.2853562099268,-14.2708573833993,-14.256513682636,-14.2423266165934,-14.2282976765733,-14.2144283350706,-14.2007200465254,-14.187174247199,-14.1737923532916,-14.1605757627847,-14.1475258543706,-14.1346439869602,-14.1219314997469,-14.1093897124479,-14.0970199246129,-14.0848234158596,-14.0728014453689,-14.0609552527438,-14.0492860561243,-14.0377950539489,-14.0264834240047,-14.0153523233386,-14.0044028883336,-13.9936362344792,-13.9830534568112,-13.9726556295628,-13.9624438054379,-13.9524190175647,-13.9425822763038,-13.932934572924,-13.9234768767047,-13.9142101359878,-13.9051352786124,-13.8962532113441,-13.8875648194328,-13.8790709681757,-13.8707725013095,-13.8626702413059,-13.854764990306,-13.8470575295673,-13.8395486187881,-13.8322389975405,-13.8251293843547,-13.8182204766709,-13.8115129509302,-13.8050074635936,-13.7987046498242,-13.7926051238043,-13.7867094798929,-13.7810182905108,-13.7755321085381,-13.7702514659234,-13.7651768733296,-13.7603088219067,-13.7556477815351,-13.7511942016866,-13.7469485115729,-13.7429111195602,-13.7390824139608,-13.7354627626162,-13.7320525126729,-13.7288519906282,-13.7258615036244
-15.2236589776746,-15.1928998392357,-15.1627096098906,-15.1330564164114,-15.1039100933687,-15.0752420986776,-15.0470254349438,-15.0192345732583,-14.991845381364,-14.9648350558246,-14.9381820569063,-14.9118660468699,-14.8858678316571,-14.8601693045348,-14.834753393972,-14.8096040121278,-14.7847060080589,-14.7600451211181,-14.7356079381728,-14.7113818517317,-14.6873550212971,-14.6635163353013,-14.6398553756832,-14.6163623842512,-14.5930282298328,-14.5698443782042,-14.5468028619894,-14.5238962531622,-14.5011176370909,-14.4784605858578,-14.4559191352173,-14.433487761089,-14.4111613581231,-14.3889352182402,-14.3668050113558,-14.3447667658372,-14.3228168506955,-14.3009519586267,-14.279169088966,-14.2574655330186,-14.235838857816,-14.214286893062,-14.1928077169898,-14.1713996435412,-14.1500612099874,-14.1287911656428,-14.1075884595195,-14.0864522309634,-14.0653817985764,-14.0443766509035,-14.0234364372663,-14.0025609578425,-13.9817501570595,-13.9610041143518,-13.9403230358914,-13.9197072495224,-13.8991571947602,-13.8786734192909,-13.8582565701522,-13.837907388838,-13.8176267052338,-13.7974154327394,-13.7772745618839,-13.7572051558981,-13.7372083466045,-13.7172853288095,-13.6974373567033,-13.6776657392679,-13.6579718365668,-13.6383570562219,-13.6188228495107,-13.5993707080015,-13.5800021605946,-13.5607187695775,-13.5415221291468,-13.5224138615883,-13.503395614309,-13.4844690591163,-13.4656358868807,-13.446897807274,-13.4282565476395,-13.4097138476788,-13.3912714599118,-13.3729311470492,-13.3546946809211,-13.3365638390259,-13.31854040509,-13.3006261654992,-13.2828229099436,-13.2651324277878,-13.2475565084661,-13.2300969396831,-13.2127555062161,-13.1955339888081,-13.1784341626546,-13.1614577969613,-13.1446066542152,-13.1278824887825,-13.1112870461083,-13.0948220617117,-13.07848926141,-13.0622903589514,-13.0462270571922,-13.0303010455975,-13.0145140016693,-12.9988675884058,-12.9833634548464,-12.968003235442,-12.9527885491742,-12.9377209999055,-12.9228021753311,-12.9080336463164,-12.893416967625,-12.8789536757505,-12.8646452909069,-12.8504933151772,-12.836499232171,-12.8226645073288,-12.8089905881009,-12.7954789021859,-12.7821308591611,-12.7689478487512,-12.7559312417828,-12.7430823891418,-12.7304026221541,-12.7178932522586,-12.7055555711734,-12.6933908501909,-12.6814003408109,-12.6695852733378,-12.6579468591082,-12.6464862877566,-12.6352047285689,-12.6241033311635,-12.6131832235784,-12.6024455134378,-12.5918912875687,-12.5815216120273,-12.5713375325815,-12.5613400735906,-12.5515302381794,-12.541909010174,-12.5324773508399,-12.5232362016647,-12.5141864829075,-12.5053290937971,-12.4966649129757,-12.4881947984073,-12.4799195865119,-12.4718400943123,-12.4639571160282,-12.4562714268619,-12.4487837804021,-12.4414949098636,-12.4344055271087,-12.4275163243036,-12.4208279722302,-12.4143411209791,-12.4080564006128,-12.4019744200266,-12.3960957680658,-12.3904210126537,-12.3849507014372,-12.3796853616388,-12.3746254996026,-12.3697716015221,-12.365124134015,-12.3606835419455,-12.3564502506447,-12.3524246648916,-12.3486071697316,-12.3449981291421,-12.3415978874575,-12.3384067681768,-12.3354250757289
-13.8188848424459,-13.7886478173251,-13.7589552588568,-13.7297764623615,-13.7010823761249,-13.6728455203354,-13.6450399098542,-13.617640981198,-13.590625522777,-13.5639716088273,-13.5376585366736,-13.5116667667745,-13.4859778662502,-13.4605744545566,-13.4354401519174,-13.4105595313497,-13.3859180712017,-13.3615021114202,-13.3372988116851,-13.3132961104525,-13.2894826882398,-13.2658479300379,-13.2423818913806,-13.2190752657841,-13.1959193528829,-13.1729060286744,-13.1500277175322,-13.12727736442,-13.1046484105609,-13.0821347668536,-13.059730792583,-13.0374312713951,-13.01523139143,-12.9931267241502,-12.9711132059095,-12.9491871186661,-12.927345073247,-12.9055839922102,-12.8839010940326,-12.8622938783176,-12.8407601107781,-12.8192978096513,-12.7979052328496,-12.776580865136,-12.7553234063653,-12.7341317597893,-12.7130050214176,-12.6919424698286,-12.670943556138,-12.6500078943646,-12.6291352527956,-12.6083255453788,-12.5875788233878,-12.5668952675349,-12.5462751813626,-12.5257189829752,-12.5052271992483,-12.484800458392,-12.4644394853483,-12.4441450945058,-12.4239181849823,-12.4037597343057,-12.3836707948192,-12.3636524881413,-12.3437059995443,-12.3238325755487,-12.3040335179874,-12.2843101811333,-12.2646639677732,-12.2450963248757,-12.2256087401953,-12.2062027405091,-12.1868798866329,-12.1676417713449,-12.148490016444,-12.1294262700312,-12.1104522037546,-12.0915695107766,-12.0727799031067,-12.0540851093446,-12.035486872926,-12.0169869496104,-11.9985871061218,-11.9802891180362,-11.9620947679666,-11.9440058447887,-11.9260241397675,-11.9081514484514,-11.8903895662895,-11.8727402893761,-11.8552054116816,-11.8377867247542,-11.8204860164285,-11.8033050694609,-11.7862456609606,-11.7693095609452,-11.7524985315933,-11.7358143269029,-11.7192586912161,-11.7028333579064,-11.6865400504961,-11.6703804800651,-11.6543563462721,-11.6384693345723,-11.6227211183438,-11.6071133555333,-11.5916476905894,-11.5763257526255,-11.5611491549566,-11.5461194954189,-11.5312383555135,-11.5165072991995,-11.5019278749939,-11.487501612176,-11.4732300242098,-11.4591146051287,-11.445156831712,-11.4313581615809,-11.4177200337988,-11.4042438692447,-11.390931068239,-11.3777830135409,-11.3648010673212,-11.3519865721422,-11.3393408510943,-11.3268652074209,-11.3145609245097,-11.3024292652201,-11.2904714722056,-11.2786887682798,-11.2670823558152,-11.2556534160084,-11.2444031105591,-11.23333258012,-11.2224429444881,-11.2117353032361,-11.2012107353071,-11.1908702986555,-11.1807150308056,-11.1707459480273,-11.1609640464339,-11.1513703011161,-11.1419656663268,-11.1327510758033,-11.1237274421762,-11.1148956580036,-11.1062565942165,-11.0978111016046,-11.0895600101815,-11.0815041292452,-11.0736442472559,-11.0659811320229,-11.0585155312045,-11.0512481713426,-11.0441797586368,-11.0373109788285,-11.0306424968408,-11.0241749576526,-11.0179089849731,-11.0118451828932,-11.0059841347302,-11.0003264034486,-10.9948725317223,-10.989623041902,-10.9845784357605,-10.9797391960281,-10.9751057833107,-10.9706786400097,-10.9664581868701,-10.9624448253686,-10.9586389361321,-10.9550408805883,-10.951650999564,-10.9484696139263,-10.9454970245204
-12.4148147718169,-12.3850798066653,-12.3558658472192,-12.3271433146573,-12.2988842303754,-12.271062137429,-12.2436520260988,-12.216630262584,-12.1899745220005,-12.163663723789,-12.1376779711381,-12.1119984930515,-12.086607589543,-12.0614885785192,-12.0366257469786,-12.0120043029744,-11.9876103307602,-11.9634307481116,-11.9394532654835,-11.9156663469626,-11.8920591734948,-11.8686216079052,-11.8453441610515,-11.8222179602839,-11.799234719269,-11.7763867085192,-11.7536667283589,-11.7310680822753,-11.708584552778,-11.6862103766281,-11.6639402229706,-11.6417691711073,-11.61969269082,-11.5977066216067,-11.5758071549952,-11.5539908163587,-11.5322544478619,-11.510595192536,-11.4890104786427,-11.4674980052937,-11.4460557280264,-11.4246818457514,-11.4033747882379,-11.3821332031896,-11.3609559457687,-11.3398420666235,-11.3187908017724,-11.2978015627407,-11.2768739268608,-11.2560076277889,-11.2352025476621,-11.2144587080019,-11.1937762617715,-11.1731554868724,-11.1525967783929,-11.1321006404312,-11.1116676823104,-11.0912986097543,-11.0709942204575,-11.0507553978945,-11.0305831067242,-11.0104783854492,-10.9904423450479,-10.9704761603646,-10.9505810687922,-10.9307583643884,-10.9110093946151,-10.8913355557383,-10.8717382898008,-10.8522190811589,-10.8327794521786,-10.8134209614472,-10.7941452001145,-10.7749537885351,-10.7558483741395,-10.7368306292447,-10.7179022471364,-10.6990649417393,-10.6803204426918,-10.6616704960694,-10.6431168608034,-10.6246613063466,-10.606305612373,-10.5880515649204,-10.569900957918,-10.5518555874767,-10.5339172540513,-10.516087758538,-10.4983689035366,-10.480762488398,-10.4632703113034,-10.4458941667782,-10.4286358446646,-10.4114971290301,-10.3944797974153,-10.3775856195723,-10.3608163572637,-10.3441737627932,-10.3276595780498,-10.3112755349107,-10.2950233529162,-10.2789047402838,-10.2629213919826,-10.2470749894058,-10.2313672006484,-10.2157996791526,-10.2003740633362,-10.1850919765026,-10.1699550258726,-10.1549648028165,-10.1401228816423,-10.1254308204282,-10.1108901591126,-10.0965024209099,-10.0822691106311,-10.0681917154723,-10.0542717034577,-10.0405105251454,-10.0269096110596,-10.0134703732806,-10.0001942051598,-9.98708247970089,-9.9741365511309,-9.96135775381171,-9.94874740198898,-9.93630679047041,-9.92403719389463,-9.91193986674173,-9.90001604293329,-9.88826693694713,-9.87669374199018,-9.86529763146058,-9.85407975788883,-9.84304125398555,-9.83218323103418,-9.82150678000332,-9.81101297186416,-9.80070285639755,-9.79057746266813,-9.78063779943454,-9.77088485431341,-9.761319595141,-9.75194296787006,-9.74275589868816,-9.73375929311729,-9.7249540357567,-9.71634099048768,-9.70792100081513,-9.6996948902642,-9.69166346020646,-9.68382749315967,-9.67618774989791,-9.66874497196648,-9.66149987913886,-9.65445317139788,-9.64760552867358,-9.64095761001997,-9.63451005423534,-9.62826347999757,-9.6222184856334,-9.61637564909634,-9.61073552842905,-9.60529866147922,-9.60006556542533,-9.5950367380666,-9.59021265722842,-9.58559377948373,-9.58118054254655,-9.57697336404149,-9.57297264127388,-9.5691787515641,-9.56559205249269,-9.56221288262364,-9.55904155861546,-9.55607837968952
-11.0114261100566,-10.9821741280595,-10.953420633022,-10.9251371310075,-10.8972966771331,-10.8698738002429,-10.8428444298045,-10.8161858277338,-10.7898765229784,-10.763896248832,-10.7382258847989,-10.7128473999128,-10.6877437992126,-10.662899073579,-10.6382981512067,-10.6139268516684,-10.5897718422164,-10.5658205965242,-10.542061354787,-10.5184830863541,-10.495075453895,-10.471828779535,-10.4487340117467,-10.4257826951854,-10.4029669410193,-10.3802793986727,-10.3577132300834,-10.3352620826509,-10.3129200671278,-10.2906817325229,-10.2685420454697,-10.246496369207,-10.2245404432657,-10.2026703643988,-10.1808825689235,-10.1591738151743,-10.1375411672563,-10.1159819791801,-10.0944938801771,-10.0730747600715,-10.0517227564584,-10.0304362406983,-10.0092138065745,-9.98805425810954,-9.96695659864491,-9.94592001915234,-9.924943889791,-9.90402774867812,-9.88317129342565,-9.86237437185031,-9.8416369737665,-9.82095922395098,-9.80034137191834,-9.77978378779093,-9.75928695270983,-9.73885145408323,-9.71847797798463,-9.6981673042184,-9.67792029955399,-9.65773791257615,-9.63762116934845,-9.6175711667014,-9.59758906921465,-9.57767610406901,-9.55783355637442,-9.53806276567934,-9.51836512066814,-9.49874205811247,-9.47919505682859,-9.45972563529025,-9.44033534851252,-9.42102578473924,-9.40179856240678,-9.3826553282174,-9.36359775329527,-9.34462753126579,-9.32574637609031,-9.30695601945882,-9.28825820838324,-9.26965470397121,-9.25114727904278,-9.23273771538487,-9.2144278035689,-9.19621934045773,-9.17811412717518,-9.16011396829191,-9.14222067033674,-9.12443604009641,-9.10676188391614,-9.08920000550754,-9.07175220514523,-9.0544202796643,-9.03720601948419,-9.02011120912002,-9.00313762576107,-8.98628703869406,-8.9695612073595,-8.95296188195218,-8.93649080229702,-8.92014969594462,-8.90394027939661,-8.88786425606907,-8.87192331659838,-8.85611913762986,-8.84045338127189,-8.82492769567105,-8.80954371279847,-8.7943030495106,-8.77920730669749,-8.7642580682851,-8.74945690182031,-8.73480535766328,-8.7203049689885,-8.70595724987501,-8.69176369850211,-8.67772579302553,-8.66384499388761,-8.65012274272792,-8.63656046195018,-8.62315955567465,-8.60992140724252,-8.59684738243726,-8.58393882626979,-8.57119706376361,-8.55862340126185,-8.54621912449818,-8.53398549869681,-8.52192377033762,-8.51003516463567,-8.49832088642316,-8.48678212047838,-8.47542003224376,-8.46423576460771,-8.45323044218625,-8.4424051679533,-8.43176102396333,-8.42129907285442,-8.41102035612377,-8.40092589446724,-8.39101668855287,-8.38129371830701,-8.37175794307041,-8.362410301316,-8.35325171160386,-8.34428307154451,-8.3355052579723,-8.32691912802213,-8.31852551779372,-8.31032524307713,-8.30231909942606,-8.29450786108598,-8.28689228360062,-8.27947310060139,-8.27225102636262,-8.26522675461848,-8.25840095871072,-8.25177429199576,-8.24534738704151,-8.23912085785389,-8.23309529636762,-8.22727127558042,-8.22164934869517,-8.21623004794796,-8.21101388620244,-8.20600135644102,-8.2011929318883,-8.19658906534494,-8.1921901899909,-8.18799671953255,-8.18400904750533,-8.18022754795521,-8.17665257533494,-8.17328446377752,-8.17012352809914,-8.16717006401689
-9.60869731736116,-9.57991017508201,-9.55159990602499,-9.52373906096344,-9.49630169137805,-9.46926327561224,-9.44260064821168,-9.4162919338994,-9.39031648364139,-9.36465481506599,-9.33928855483151,-9.31420038434558,-9.28937398795438,-9.26479400411154,-9.24044597817783,-9.21631631826406,-9.19239225260301,-9.16866178953538,-9.14511367917871,-9.12173737688309,-9.09852300836982,-9.0754613373154,-9.05254373277435,-9.02976214076293,-9.0071090544256,-8.98457748757647,-8.96216094853179,-8.93985341574589,-8.91764931465971,-8.89554349416602,-8.8735312068527,-8.85160808773804,-8.82977013516634,-8.80801369270151,-8.78633543129806,-8.76473233260694,-8.74320167316674,-8.72174100908833,-8.70034816188178,-8.67902120423875,-8.65775844734355,-8.63655842790291,-8.61541989648794,-8.59434180615054,-8.57332330152673,-8.55236370851233,-8.53146252414905,-8.5106194077209,-8.48983417113774,-8.46910677155364,-8.44843730121281,-8.42782598230545,-8.40727315678674,-8.38677928177339,-8.36634492123761,-8.34597074009528,-8.32565749849974,-8.30540604528812,-8.28521731298267,-8.26509231163044,-8.24503212562018,-8.22503790608687,-8.20511086937893,-8.1852522905136,-8.16546349955271,-8.14574587856058,-8.12610085616294,-8.10652990555582,-8.08703454001244,-8.06761631055116,-8.04827680150177,-8.02901762912384,-8.00984043759752,-7.99074689651064,-7.97173869946761,-7.95281755977689,-7.93398520971169,-7.91524339764311,-7.89659388591531,-7.87803844914112,-7.85957887205299,-7.84121694812515,-7.82295447737258,-7.80479326455489,-7.78673511858995,-7.76878185076407,-7.7509352722351,-7.73319719448142,-7.71556942680832,-7.69805377567107,-7.68065204315505,-7.66336602613552,-7.64619751646453,-7.62914829733452,-7.61222014512234,-7.59541482630044,-7.57873409961044,-7.56217971075921,-7.54575339611293,-7.52945688023277,-7.51329187464631,-7.4972600778803,-7.48136317536336,-7.4656028380507,-7.44998072237871,-7.43449846928445,-7.41915770508041,-7.4039600394326,-7.38890706605548,-7.37400036148756,-7.35924148557942,-7.34463198103396,-7.33017337245073,-7.31586716725846,-7.30171485353466,-7.28771790222876,-7.27387776484991,-7.260195873973,-7.24667364421555,-7.23331246965563,-7.22011372619221,-7.20707876963641,-7.19420893580212,-7.18150554221265,-7.16896988484956,-7.15660324063808,-7.14440686637187,-7.13238199897535,-7.12052985478488,-7.10885162990829,-7.09734850034047,-7.08602162183979,-7.07487212957091,-7.06390113867556,-7.05310974343939,-7.04249901789061,-7.03207001572844,-7.02182376983498,-7.01176129306924,-7.00188357750744,-6.99219159485975,-6.98268629647569,-6.97336861288252,-6.96423945507243,-6.95529971265057,-6.94655025513092,-6.93799193194243,-6.92962557207142,-6.92145198395551,-6.9134719561338,-6.90568625615415,-6.89809563258447,-6.89070081249989,-6.88350250376919,-6.87650139395009,-6.8696981500639,-6.86309341900341,-6.85668782862572,-6.85048198625464,-6.84447647872955,-6.83867187398491,-6.83306871925606,-6.82766754273572,-6.82246885193524,-6.8174731353534,-6.812680861258,-6.80809247875726,-6.80370841670376,-6.79952908477168,-6.79555487299282,-6.79178615138383,-6.78822327104857,-6.78486656325134,-6.78171633991118,-6.77877289320617
-8.20660791377867,-8.17826836059666,-8.15038493500739,-8.12293119522582,-8.09588215253183,-8.06921420004272,-8.04290504434147,-8.01693364104042,-7.99128013367073,-7.96592579436231,-7.94085296977411,-7.91604502726207,-7.89148630525685,-7.86716206528862,-7.84305844710869,-7.8191624250133,-7.79546176708743,-7.77194499636437,-7.74860135319381,-7.72542076041168,-7.70239378917742,-7.67951162724577,-7.65676604890376,-7.63414938508365,-7.61165449619477,-7.58927474589004,-7.56700397597791,-7.54483648224749,-7.52276699206593,-7.50079064270193,-7.47890296062894,-7.4570998418273,-7.43537753300598,-7.41373261402563,-7.39216198096233,-7.37066282920918,-7.34923263891554,-7.32786915977468,-7.30657039711369,-7.2853345988604,-7.26416024193458,-7.24304602120921,-7.22199083710018,-7.20099378503409,-7.18005414457033,-7.15917136990936,-7.13834507964387,-7.11757504806428,-7.09686119683664,-7.07620358587221,-7.05560240559632,-7.03505797059728,-7.01457071106265,-6.99414116653978,-6.97376997957662,-6.95345788844534,-6.93320572303344,-6.91301439820577,-6.89288490773444,-6.87281832053787,-6.85281577521431,-6.83287847506045,-6.81300768375144,-6.79320472202426,-6.77347096264617,-6.75380782642534,-6.73421677943344,-6.71469932937876,-6.69525702174548,-6.67589143669113,-6.65660418697851,-6.63739691337847,-6.61827128442542,-6.59922899151914,-6.58027174747045,-6.56140128429419,-6.5426193509048,-6.5239277100998,-6.50532813800214,-6.48682242166424,-6.4684123564839,-6.45009974522043,-6.43188639635065,-6.41377412218961,-6.39576473752371,-6.3778600585681,-6.36006190104084,-6.34237207900799,-6.32479240437758,-6.30732468496359,-6.28997072379653,-6.27273231796346,-6.25561125765145,-6.23860932554194,-6.22172829560887,-6.20496993193106,-6.18833598926309,-6.17182821061479,-6.15544832816616,-6.13919806094793,-6.12307911633181,-6.10709318685221,-6.09124195214719,-6.07552707713427,-6.05995021170995,-6.0445129900325,-6.02921703123971,-6.01406393749451,-5.99905529520416,-5.98419267271072,-5.96947762240734,-5.95491167827132,-5.94049635704727,-5.92623315696545,-5.91212355812462,-5.89816902236996,-5.88437099239411,-5.87073089222702,-5.85725012701224,-5.84393008194061,-5.83077212358091,-5.81777759865943,-5.80494783447676,-5.79228413803031,-5.77978779693845,-5.76746007865381,-5.75530223140527,-5.74331548198884,-5.73150103799907,-5.71986008665925,-5.70839379441301,-5.69710330857711,-5.68598975508107,-5.67505424015457,-5.66429784932816,-5.65372164784031,-5.64332668054161,-5.63311397221412,-5.62308452718437,-5.6132393287717,-5.60357934085991,-5.5941055065216,-5.58481874834123,-5.57571996901726,-5.56681005111344,-5.55808985587802,-5.54956022547032,-5.54122198158316,-5.53307592520883,-5.52512283767422,-5.51736347991005,-5.50979859364324,-5.50242889921901,-5.49525509786096,-5.48827787090065,-5.48149787914409,-5.47491576355597,-5.46853214617039,-5.46234762834322,-5.45636279165498,-5.45057819835927,-5.44499439100832,-5.43961189220695,-5.43443120510017,-5.42945281317085,-5.42467718048172,-5.4201047513547,-5.4157359509426,-5.41157118474555,-5.40761083916627,-5.40385528057809,-5.40030485642481,-5.39695989498927,-5.39382070516726,-5.3908875763162
-6.80513842600445,-6.7772300642356,-6.7497579184772,-6.72269651772999,-6.69602179816096,-6.66971103438723,-6.6437427731658,-6.6180967706938,-6.59275393341301,-6.56769626093092,-6.5429067928365,-6.51836955725497,-6.49406952204481,-6.46999254905757,-6.44612534989983,-6.42245544373006,-6.39897111840608,-6.37566139181268,-6.35251597608345,-6.32952524343935,-6.30668019377222,-6.28397242288608,-6.26139409352851,-6.23893790743026,-6.21659707767333,-6.19436530415885,-6.17223674842379,-6.15020601127941,-6.12826811056405,-6.10641845940157,-6.08465284741064,-6.06296742079243,-6.04135866455209,-6.0198233851888,-5.99835869397157,-5.97696199164437,-5.95563095309612,-5.93436351327728,-5.91315785370537,-5.89201238933586,-5.8709257561525,-5.84989679999615,-5.82892456422647,-5.80800828037303,-5.7871473570377,-5.76634137026963,-5.74559005470007,-5.72489329452691,-5.7042511154084,-5.68366367520113,-5.66313125787775,-5.64265426611891,-5.622233213096,-5.60186871673753,-5.58156149374335,-5.56131235284619,-5.54112218969391,-5.52099198074066,-5.5009227784619,-5.48091570687916,-5.46097195539872,-5.44109277660459,-5.42127947933142,-5.40153342618018,-5.38185602951546,-5.36224874799291,-5.34271308150289,-5.32325056973059,-5.30386278806694,-5.2845513443761,-5.26531787666201,-5.24616404972627,-5.22709155331944,-5.20810209871127,-5.18919741649628,-5.17037925583105,-5.15164937971818,-5.13300956483704,-5.11446159986099,-5.09600728151315,-5.07764841521666,-5.05938681188638,-5.04122428679787,-5.02316265836711,-5.00520374641425,-4.98734937072663,-4.96960135047598,-4.95196150198299,-4.93443163793239,-4.9170135670183,-4.89970909199934,-4.88252000895545,-4.86544810658029,-4.84849516551017,-4.83166295614615,-4.81495324042362,-4.79836776791703,-4.78190827857583,-4.76557649866797,-4.74937414262959,-4.73330291155625,-4.71736449254649,-4.70156055865107,-4.6858927679132,-4.67036276319575,-4.65497217164258,-4.63972260456086,-4.62461565650085,-4.60965290557721,-4.59483591255011,-4.58016622059384,-4.56564535562302,-4.55127482560619,-4.53705611972362,-4.52299070940876,-4.50908004756243,-4.4953255672705,-4.48172868355672,-4.46829079212765,-4.45501326936508,-4.44189747190541,-4.42894473780254,-4.4161563837412,-4.40353370837775,-4.39107798941234,-4.37879048537732,-4.36667243435093,-4.35472505447635,-4.34294954359964,-4.33134707988719,-4.31991882094431,-4.30866590409974,-4.29758944675501,-4.28669054626258,-4.27597027840631,-4.26542970050127,-4.25506984875693,-4.24489173830017,-4.23489636554027,-4.22508470534359,-4.21545771340871,-4.20601632385981,-4.19676145225461,-4.18769399248373,-4.17881481953447,-4.17012478750047,-4.16162472983353,-4.15331546169978,-4.14519777614967,-4.13727244814456,-4.12954023127725,-4.1220018599889,-4.11465804850025,-4.10750949122968,-4.10055686279966,-4.09380081878965,-4.08724199330166,-4.08088100239118,-4.07471844222707,-4.06875488851543,-4.06299089825464,-4.05742700864229,-4.05206373715666,-4.04690158247644,-4.04194102284791,-4.03718251836878,-4.03262650855774,-4.0282734149215,-4.02412363859901,-4.02017756183511,-4.01643554809766,-4.01289794128792,-4.00956506619755,-4.00643722884405,-4.00351471560188
-5.40427033665802,-5.37677758427566,-5.34970193714747,-5.32301885991964,-5.29670517997954,-5.27073902153964,-5.24509974069593,-5.21976786495759,-5.19472503586204,-5.16995395364435,-5.14543832534076,-5.12116281523365,-5.09711299747491,-5.07327531152364,-5.04963701950649,-5.02618616547264,-5.00291153661007,-4.97980262778171,-4.95684960442313,-4.93404327146624,-4.91137504032986,-4.88883689946093,-4.86642138565702,-4.84412155601152,-4.82193096314677,-4.79984362950887,-4.77785402425957,-4.75595704081687,-4.73414797521519,-4.71242250618806,-4.69077667549672,-4.66920686932707,-4.64770980113556,-4.62628249446351,-4.60492226728746,-4.58362671647922,-4.56239370362243,-4.54122134102005,-4.52010797867797,-4.49905219142144,-4.47805276718188,-4.45710869571494,-4.43621915758601,-4.41538351364369,-4.39460129567948,-4.37387219626774,-4.35319606047906,-4.33257287692658,-4.31200277025005,-4.29148599171046,-4.27102291431135,-4.25061402376639,-4.2302599123758,-4.20996127264203,-4.18971889140238,-4.16953364349362,-4.14940648686905,-4.12933845667399,-4.10933066036594,-4.08938427382705,-4.06950053507549,-4.04968074145353,-4.02992624484838,-4.01023844753703,-3.99061879891036,-3.97106879147046,-3.9515899582768,-3.93218386801223,-3.91285212404065,-3.89359635949657,-3.8744182355407,-3.85531943936792,-3.83630167928482,-3.81736668566765,-3.79851620490271,-3.779752001167,-3.76107585086712,-3.7424895424688,-3.72399487503412,-3.70559365498238,-3.68728769546075,-3.66907881427778,-3.65096883269712,-3.63295957424529,-3.61505286180875,-3.59725051868318,-3.57955436571191,-3.5619662201766,-3.54448789538279,-3.52712119980686,-3.50986793470489,-3.49272989494324,-3.47570886602384,-3.45880662656327,-3.44202494285778,-3.42536557243855,-3.40883026092806,-3.39242074274028,-3.37613873927481,-3.35998595867517,-3.34396409596192,-3.32807483166184,-3.31231983188175,-3.29670074736046,-3.28121921364701,-3.26587685004031,-3.25067525975925,-3.23561602938344,-3.22070072819938,-3.20593090860046,-3.19130810533855,-3.17683383505661,-3.16250959660246,-3.14833687044649,-3.1343171181021,-3.12045178353924,-3.10674229057253,-3.09319004461301,-3.07979643165365,-3.06656281868803,-3.05349055321645,-3.04058096233194,-3.02783535407661,-3.01525501767625,-3.00284122125458,-2.99059521292844,-2.97851822192339,-2.96661145667372,-2.95487610585096,-2.94331333768994,-2.93192430087706,-2.9207101233421,-2.90967191331362,-2.89881075838102,-2.88812772678699,-2.87762386554104,-2.86730020217024,-2.85715774370945,-2.84719747740351,-2.83742037025118,-2.82782736861134,-2.81841939917481,-2.8091973684065,-2.80016216303318,-2.79131464965516,-2.78265567431234,-2.77418606408835,-2.76590662507908,-2.75781814436232,-2.74992138872264,-2.74221710526385,-2.73470602122219,-2.72738884454984,-2.72026626222114,-2.71333894378353,-2.70660753683475,-2.70007267110566,-2.69373495572904,-2.68759498125729,-2.68165331810371,-2.6759105175617,-2.67036711159037,-2.66502361290975,-2.65988051488199,-2.65493829138865,-2.65019739816958,-2.64565826974035,-2.64132132411859,-2.63718695816038,-2.63325555016439,-2.62952746016265,-2.62600302880702,-2.62268257743426,-2.61956640852799,-2.61665480625416
-4.00398603554467,-3.97689409046444,-3.95020090889244,-3.92388285699121,-3.89791762158859,-3.87228414530361,-3.84696256423624,-3.82193414918592,-3.7971812496184,-3.77268724071084,-3.74843647232066,-3.72441422134216,-3.70060664591259,-3.67700074140194,-3.65358430011739,-3.63034587067872,-3.60727472193869,-3.58436080604247,-3.5615947259744,-3.53896770201038,-3.51647154184795,-3.49409861111667,-3.47184180563099,-3.4496945251195,-3.4276506476217,-3.40570450560494,-3.38385086361566,-3.36208489611369,-3.34040216635225,-3.31879860750419,-3.29727050322947,-3.27581447014654,-3.25442744043949,-3.23310664605171,-3.21184960247865,-3.19065409469226,-3.16951816301997,-3.14844008941526,-3.12741838497951,-3.10645177724126,-3.08553919981409,-3.06467977964482,-3.04387282808682,-3.02311782954627,-3.00241443373383,-2.98176244337975,-2.961161809694,-2.94061261986133,-2.92011509297922,-2.89966956993209,-2.87927650668001,-2.85893646876082,-2.83865012340561,-2.81841823335634,-2.79824165239913,-2.77812131761391,-2.75805824573928,-2.73805352721297,-2.71810832179537,-2.69822385321606,-2.67840140570345,-2.65864231891462,-2.63894798455797,-2.61931984213683,-2.59975937547486,-2.58026810937596,-2.56084760622159,-2.54149946266023,-2.52222530718183,-2.50302679660692,-2.48390561394439,-2.46486346529284,-2.44590207771225,-2.42702319713683,-2.40822858548131,-2.38952001939947,-2.37089928731831,-2.35236818885843,-2.33392853115217,-2.31558212938802,-2.29733080313841,-2.27917637604051,-2.2611206736731,-2.24316552375566,-2.22531275161901,-2.20756418246168,-2.18992163768857,-2.17238693549169,-2.15496188830625,-2.13764830332718,-2.12044797965083,-2.10336270970384,-2.08639427642206,-2.0695444534997,-2.05281500407614,-2.03620768042981,-2.01972422331644,-2.0033663611878,-1.9871358093078,-1.97103426981511,-1.95506343073905,-1.9392249651722,-1.92352053218758,-1.90795177518507,-1.89252032092287,-1.87722778125851,-1.86207575051949,-1.84706580702385,-1.83219951093116,-1.81747840620079,-1.80290401779865,-1.78847785347293,-1.7742014029912,-1.76007613676663,-1.74610350753829,-1.73228494918288,-1.7186218757688,-1.70511568303019,-1.69176774746185,-1.67857942604999,-1.665552056574,-1.65268695604894,-1.63998542363086,-1.62744873764291,-1.61507815688964,-1.60287491984883,-1.59084024584914,-1.57897533372278,-1.56728136252946,-1.5557594911694,-1.54441085863661,-1.53323658345738,-1.52223776470225,-1.51141548095688,-1.50077079045303,-1.49030473213745,-1.48001832411865,-1.46991256511404,-1.45998843281291,-1.45024688568191,-1.44068886224036,-1.43131528049173,-1.42212703906088,-1.4131250160506,-1.40431007040272,-1.39568304008645,-1.38724474442023,-1.37899598258477,-1.37093753362305,-1.36307015771428,-1.35539459442964,-1.34791156411853,-1.34062176787765,-1.33352588663828,-1.32662458232357,-1.31991849781758,-1.3134082556883,-1.30709445958064,-1.30097769379728,-1.29505852354987,-1.28933749481448,-1.28381513398514,-1.27849194912312,-1.27336842817988,-1.26844504061344,-1.26372223718275,-1.25920044902762,-1.25488008860142,-1.25076154990754,-1.24684520730759,-1.24313141684004,-1.23962051561239,-1.2363128220687,-1.23320863552811,-1.23030823723991
-2.60426877437058,-2.57756357980088,-2.55123954545638,-2.52527390664784,-2.49964517847926,-2.47433309221131,-2.44931853561116,-2.42458349550805,-2.40011100381508,-2.37588508556308,-2.35189070993724,-2.32811374370306,-2.30454090715034,-2.28115973120552,-2.25795851800052,-2.23492630262297,-2.21205281641653,-2.18932845293355,-2.16674423445397,-2.14429178153279,-2.12196328295155,-2.0997514667865,-2.07764957420832,-2.05565133375671,-2.0337509362073,-2.01194301236026,-1.99022260980672,-1.96858517274018,-1.94702652125559,-1.92554283254978,-1.90413062227051,-1.88278672794382,-1.86150829153573,-1.84029274417674,-1.81913779114839,-1.79804139752625,-1.77700177447264,-1.75601736605282,-1.73508683764098,-1.71420906319224,-1.69338311443965,-1.67260825035979,-1.65188390656914,-1.63120968579491,-1.61058534893007,-1.59001080535796,-1.56948610570311,-1.54901143265562,-1.52858709382451,-1.50821351538306,-1.48789123261852,-1.46762088653003,-1.44740321497017,-1.42723904784754,-1.4071293012212,-1.38707497194355,-1.36707713183739,-1.34713692360253,-1.32725555566819,-1.30743429763717,-1.28767447629275,-1.26797747123206,-1.24834471151388,-1.22877767116611,-1.20927786597485,-1.18984685079502,-1.17048621551262,-1.15119758246789,-1.13198260312652,-1.11284295607356,-1.09378034367271,-1.07479649058439,-1.05589313954266,-1.03707205135186,-1.0183350011103,-0.999683777184828,-0.98112017827205,-0.962646012966076,-0.944263096717975,-0.925973250745386,-0.907778300577263,-0.889680074073112,-0.87168040134452,-0.853781111113932,-0.835984031675565,-0.81829098828112,-0.80070380278724,-0.783224292727084,-0.765854268935101,-0.748595536141721,-0.73144989182174,-0.714419123622719,-0.697505011533821,-0.680709324548502,-0.664033821093369,-0.647480248090062,-0.631050340125682,-0.61474581942025,-0.59856839503135,-0.582519762068188,-0.566601600902999,-0.550815577383645,-0.535163342805362,-0.519646531673146,-0.504266763450033,-0.489025640526705,-0.473924749063599,-0.45896565794996,-0.444149918483703,-0.429479064939613,-0.41495461321847,-0.400578061762275,-0.386350890096026,-0.372274559449124,-0.358350512546565,-0.34458017279232,-0.330964945260149,-0.317506215754037,-0.304205350150085,-0.291063695716815,-0.278082579649123,-0.265263310555753,-0.252607176201366,-0.240115445030966,-0.227789366605407,-0.215630168919148,-0.203639061675716,-0.191817234007374,-0.180165855445637,-0.168686074696296,-0.157379021172034,-0.14624580467617,-0.13528751390345,-0.12450521865776,-0.113899967983144,-0.103472791580685,-0.0932246984998528,-0.0831566779102104,-0.0732697000264011,-0.0635647137816022,-0.0540426496442308,-0.0447044165254624,-0.0355509052033369,-0.0265829858694531,-0.0178015086705159,-0.00920730494041777,-0.000801185211599886,0.00741605862839378,0.0154436544891894,0.0232808503082538,0.0309269131068959,0.0383811293384895,0.0456428050233058,0.0527112657136968,0.0595858556827693,0.0662659390883675,0.0727508985503675,0.0790401371597795,0.0851330759311963,0.0910291554106379,0.0967278354247583,0.102228594214097,0.107530929489911,0.112634357422706,0.117538413793085,0.122242652391122,0.126746645997486,0.131049986745182,0.135152284768253,0.139053169314025,0.142752287877471,0.146249307223712,0.149543911409808,0.152635804778981,0.155524708868171
-1.2051026222789,-1.1787708340307,-1.15280331204107,-1.12717812955887,-1.10187459967105,-1.07687321409037,-1.05215558488078,-1.02770438892938,-1.00350331527247,-0.979537015183013,-0.955791054306133,-0.93225186767782,-0.908906716810037,-0.885743648228015,-0.862751455100778,-0.839919640277429,-0.817238380391728,-0.79469849328953,-0.772291405395322,-0.750009122076364,-0.727844197722902,-0.705789709536162,-0.683839230576552,-0.661986805259687,-0.640226924896353,-0.618554506576686,-0.596964869811472,-0.575453717866679,-0.554017116937047,-0.532651478498593,-0.511353540968372,-0.49012035310426,-0.46894925822744,-0.447837878529356,-0.426784100842752,-0.405786062386454,-0.384842137861057,-0.363950926918193,-0.343111241945905,-0.322322096700759,-0.301582695377505,-0.280892422350036,-0.260250832183942,-0.239657640411792,-0.21911271407663,-0.198616063451283,-0.178167834448459,-0.157768299575139,-0.137417852602312,-0.117116997796046,-0.0968663480995815,-0.0766666147598869,-0.0565186031840597,-0.0364232064333407,-0.0163813998024125,0.00360576412290925,0.0235371613695747,0.0434115998068592,0.0632278253155505,0.0829845256695023,0.102680333453918,0.122313832149644,0.141883558059675,0.161388004999765,0.180825626921262,0.200194841846042,0.219494033994323,0.238721557785908,0.25787574025577,0.276954883086944,0.295957266025198,0.314881148595248,0.33372477273565,0.3524863653073,0.371164138901662,0.389756295524961,0.408261026771783,0.426676517045877,0.445000943769514,0.463232480524653,0.481369297426141,0.499409562730023,0.517351444746396,0.535193112749823,0.552932737698484,0.570568494366398,0.588098561571769,0.605521124278738,0.622834372947267,0.64003650571027,0.657125729476576,0.674100259673111,0.690958321473374,0.707698151070048,0.724317995195065,0.740816113230807,0.757190776937136,0.773440270484087,0.789562892165918,0.805556954869957,0.821420785431201,0.837152725809943,0.852751133614959,0.86821438265801,0.883540862170719,0.898728979003948,0.913777155995461,0.92868383368824,0.94344747013389,0.958066540831851,0.972539538701881,0.986864976624958,1.00104138412038,1.01506730995746,1.02894132191872,1.04266200622931,1.05622796802066,1.06963783171591,1.08289024184015,1.09598386090954,1.10891737205702,1.12168947718948,1.13429889840268,1.14674437718699,1.15902467464673,1.17113857210148,1.18308487014784,1.19486238939342,1.20646997080243,1.21790647497204,1.2291707814384,1.24026179169442,1.25117842496687,1.26191962185527,1.27248434187595,1.28287156553094,1.29308029185759,1.30310954100349,1.31295835216261,1.32262578391695,1.33211091561441,1.34141284596146,1.35053069295319,1.35946359510478,1.3682107089314,1.37677121214611,1.38514430146705,1.39332919285474,1.4013251217622,1.40913134302562,1.41674713105004,1.42417177912455,1.43140460030159,1.4384449264752,1.44529210884625,1.45194551723472,1.45840454143348,1.46466858934585,1.4707370885607,1.47660948514803,1.48228524376364,1.48776384872824,1.49304480247395,1.49812762630629,1.50301186060878,1.50769706320924,1.51218281244269,1.51646870353514,1.52055435135918,1.52443938808622,1.52812346575516,1.53160625407074,1.53488744073479,1.53796673292953,1.54084385510626
0.193527575811231,0.219498620513207,0.245121611724045,0.270417668479695,0.295406708254404,0.320107506506815,0.344537753094329,0.368714106289616,0.39265224373824,0.416366911128165,0.439871967915366,0.463180432058948,0.486304520791805,0.509255691386016,0.532044677564016,0.554681526746975,0.577175633160039,0.599535771139529,0.621770125526524,0.643886321359815,0.665891451527443,0.687792103773887,0.709594386358873,0.731303951356637,0.752926018191147,0.774465395629875,0.795926502262603,0.817313386646077,0.838629746176395,0.859878944934337,0.881064030959067,0.902187752554823,0.923252573765637,0.944260689417462,0.965214038999676,0.986114320228381,1.00696300178802,1.02776133571223,1.0485103689378,1.06921095403854,1.08986376053875,1.11046928413748,1.13102785701045,1.15153965631447,1.17200471368935,1.19242292253219,1.21279404651045,1.23311772762872,1.25339349194607,1.27362075772979,1.29379884150879,1.31392696347683,1.33400425618873,1.35402976566181,1.37400246064922,1.39392123670567,1.41378491956084,1.43359227205661,1.45334199646621,1.47303274012515,1.49266309905877,1.51223162127656,1.53173681087958,1.55117713180306,1.57055101023201,1.5898568387872,1.60909297833999,1.62825776168953,1.64734949594381,1.66636646535198,1.68530693322128,1.70416914479813,1.72295132871486,1.7416517004047,1.76026846233501,1.77879980749918,1.79724391953036,1.81559897652713,1.83386315105201,1.85203461197182,1.8701115259164,1.88809205921453,1.90597437864457,1.92375665273397,1.94143705295983,1.95901375492031,1.97648493941685,1.99384879288357,2.01110351017249,2.02824729235098,2.04527835038294,2.06219490487371,2.07899518595877,2.09567743554638,2.11223990682893,2.12868086556844,2.14499858989177,2.16119137227378,2.17725751839203,2.19319534872199,2.20900319855491,2.22467941828108,2.24022237435753,2.25563044943897,2.27090204208653,2.28603556821759,2.3010294603616,2.31588216863901,2.33059216096296,2.34515792227143,2.35957795686758,2.37385078622816,2.38797495066643,2.40194900927028,2.41577153990167,2.42944113914186,2.44295642254258,2.45631602526993,2.46951860144321,2.48256282468657,2.49544738775694,2.50817100368934,2.52073240430087,2.53313034144645,2.54536358677262,2.55743093093716,2.56933118542486,2.58106318105834,2.5926257684483,2.60401781736371,2.61523821819898,2.62628588137525,2.63715973623889,2.64785873259177,2.65838183954756,2.66872804670848,2.67889636253932,2.6888858153944,2.69869545428628,2.70832434639615,2.71777157980804,2.72703626133926,2.73611751784043,2.74501449496378,2.75372635905509,2.76225229453129,2.77059150617384,2.77874321759049,2.7867066717946,2.79448113071086,2.80206587630934,2.80946020885978,2.81666344780132,2.82367493176537,2.83049401880791,2.83712008514803,2.84355252605309,2.84979075627018,2.85583420881412,2.86168233477258,2.86733460520091,2.87279050969565,2.87804955473948,2.88311126772555,2.88797519300962,2.89264089411347,2.89710795199974,2.90137596735619,2.9054445586242,2.90931336199003,2.91298203315111,2.91645024490268,2.91971768903102,2.92278407459673,2.92564912964539
1.5916362384111,1.61725855122779,1.64254836896365,1.66752603190463,1.69221071582308,1.7166204897766,1.74077237097487,1.76468237704626,1.78836557532037,1.81183613017021,1.83510734780282,1.85819171928799,1.88110095975676,1.90384604844931,1.92643726426834,1.94888422116512,1.97119590099001,1.99338068544461,2.01544638550624,2.03740027035184,2.05924909438065,2.08099912318986,2.10265615827922,2.12422556023949,2.14571227109826,2.16712083566927,2.1884554219466,2.20971983981667,2.23091755992473,2.25205173107514,2.27312519660762,2.29414051026163,2.3150999517195,2.33600554021817,2.35685904939433,2.37766201859378,2.3984157672034,2.41912140523604,2.43977984496286,2.46039181180876,2.48095785411732,2.50147835396231,2.52195353484981,2.54238347236119,2.56276810110271,2.58310722312638,2.60340051604601,2.62364754087778,2.64384774664916,2.66400047961466,2.68410498833143,2.70416042975651,2.72416587493811,2.74412031485613,2.76402266530303,2.78387177146411,2.8036664136327,2.82340531084017,2.84308712571533,2.86271046712238,2.88227389658707,2.90177592971108,2.92121504075746,2.94058966547129,2.95989820474929,2.97913902789026,2.99831047368542,3.01741085566238,3.03643846332531,3.0553915643616,3.07426840771564,3.09306722539844,3.11178623505961,3.13042364121566,3.148977638242,3.16744641086783,3.18582813700871,3.20412098920349,3.22232313565527,3.24043274232602,3.25844797355546,3.27636699414171,3.29418797097307,3.31190907234122,3.32952847113839,3.34704434469992,3.36445487643155,3.38175825660261,3.39895268259087,3.41603636064784,3.43300750664253,3.44986434611437,3.46660511569456,3.48322806320058,3.49973144870899,3.51611354492692,3.5323726377149,3.54850702722632,3.56451502734367,3.58039496661345,3.59614518943033,3.61176405493958,3.62724993883239,3.64260123271185,3.65781634518629,3.67289370141964,3.68783174407801,3.70262893323249,3.7172837463948,3.73179467973893,3.74616024682518,3.76037898005532,3.77444943010229,3.7883701661479,3.8021397766596,3.81575686902173,3.82922006952856,3.84252802348186,3.85567939552431,3.86867286996525,3.88150715021615,3.89418095956614,3.90669304030826,3.91904215472923,3.93122708489605,3.94324663199029,3.9550996175,3.96678488177358,3.97830128605816,3.98964771020491,4.00082305453915,4.01182623897097,4.02265620255866,4.03331190470826,4.04379232422525,4.05409645944181,4.06422332848999,4.07417196919224,4.08394143857649,4.09353081356682,4.10293919039211,4.11216568461333,4.12120943134155,4.13006958501282,4.13874531906902,4.14723582703681,4.15554032074078,4.16365803175961,4.17158821031998,4.17933012680891,4.18688306885488,4.19424634453347,4.20141927997147,4.20840122070808,4.21519153096216,4.2217895934667,4.22819480984739,4.23440660031713,4.2404244042005,4.24624767807552,4.25187589869395,4.25730856007155,4.26254517519746,4.2675852755051,4.2724284094563,4.27707414607659,4.28152207124586,4.28577178853556,4.28982292135476,4.29367510952025,4.29732801157252,4.30078130462451,4.30403468348703,4.30708786039548,4.3099405664278
2.98923708586926,3.01452205579162,3.03948946060146,3.06415888958861,3.08854880365942,3.11267659081975,3.13655862008162,3.1602102913242,3.18364608420634,3.20687960303962,3.22992362114292,3.25279012154206,3.27549033648594,3.29803478477368,3.32043330756491,3.34269510149852,3.36482875173175,3.38684226179558,3.40874308353696,3.4305381437695,3.4522338713742,3.4738362224395,3.49535070376379,3.51678239563253,3.53813597365377,3.55941572953509,3.58062559011827,3.60176913681531,3.622849622741,3.64386998997946,3.66483288564578,3.68574067729347,3.70659546774647,3.72739910859832,3.74815321384253,3.76885917231809,3.78951816000838,3.81013115128519,3.830698930165,3.85122210000318,3.87170109446015,3.89213618662123,3.91252749676545,3.93287500297404,3.95317854797881,3.97343784777496,3.99365249736434,4.01382198036563,4.03394567441686,4.05402285641063,4.074052710329,4.09403433360066,4.11396674007071,4.13384886770257,4.15367958225184,4.1734576825942,4.19318190584411,4.21285092983513,4.23246337970565,4.25201782959925,4.27151280824279,4.29094680074166,4.31031825415783,4.3296255779635,4.34886715028466,4.36804131759635,4.38714640042409,4.40618069406972,4.42514247139277,4.44402998591519,4.46284147338108,4.48157515487847,4.50022923674584,4.51880191628712,4.53729137902425,4.55569580433496,4.57401336479796,4.59224222796252,4.61038056005512,4.62842652436944,4.64637828413456,4.66423400425526,4.68199185147321,4.69964999528125,4.71720661142186,4.73465987898018,4.75200798537011,4.76924912403317,4.78638149744992,4.80340331717682,4.82031280416862,4.83710819001266,4.85378771781194,4.87034964251765,4.88679223102056,4.90311376439601,4.91931253605878,4.9353868542706,4.95133504168314,4.96715543606939,4.98284638994392,4.99840627254693,5.01383346892868,5.02912638071348,5.04428342533129,5.05930303887919,5.07418367402815,5.08892380092303,5.10352190756146,5.11797650017036,5.13228610379798,5.14644926045662,5.16046453208614,5.17433049827025,5.18804575845903,5.20160893048364,5.21501865103431,5.22827357681192,5.24137238311533,5.25431376456652,5.26709643554659,5.27971912969184,5.29218060038784,5.30447961991544,5.31661498102457,5.32858549509447,5.34038999413207,5.35202732901416,5.36349637049716,5.37479600917854,5.38592515475105,5.39688273687761,5.40766770498612,5.41827902768185,5.42871569337308,5.43897671018416,5.44906110507839,5.45896792512298,5.46869623624914,5.47824512451385,5.48761369452529,5.49680107103973,5.50580639686802,5.51462883517931,5.52326756773405,5.53172179553968,5.53999073885191,5.54807363617337,5.5559697466534,5.56367834596591,5.57119873056035,5.57853021474958,5.58567213218166,5.59262383472435,5.59938469315566,5.60595409625495,5.61233145229394,5.61851618714039,5.62450774624858,5.63030559177756,5.63590920563584,5.64131808754851,5.64653175526348,5.65154974512544,5.65637161141521,5.66099692610072,5.66542528009583,5.669656281811,5.6736895574187,5.67752475130399,5.68116152620073,5.6845995617353,5.68783855588967,5.69087822489288,5.69371830198901
4.38634317610919,4.41130159723977,4.43595677920862,4.46032758755766,4.48443179376156,4.50828612957608,4.53190633875008,4.55530722650025,4.57850270567135,4.60150584122525,4.62432889312706,4.64698335517218,4.6694799943001,4.69182888654089,4.71403945088414,4.73612048295203,4.75808018607418,4.77992620001007,4.801665630786,4.82330507642664,4.84485065281004,4.86630801816361,4.88768239623312,4.90897859845953,4.93020104425716,4.95135378221971,4.97244050828576,4.99346458396482,5.01442905384164,5.03533666208253,5.0561898677594,5.07699085988986,5.09774157184668,5.11844369460283,5.13909868995435,5.15970780239013,5.18027207086246,5.20079234036135,5.221269271962,5.24170335321841,5.26209490777347,5.28244410470478,5.30275096650584,5.32301537863711,5.34323709621208,5.36341575261082,5.38355086571772,5.4036418455519,5.42368800051509,5.44368854314845,5.46364259710509,5.48354920195595,5.50340731846811,5.52321583439519,5.5429735687685,5.56267927682666,5.58233165457804,5.60192934243705,5.62147092951497,5.64095495828752,5.66037992602782,5.6797442913383,5.69904647408228,5.71828486135232,5.73745780859133,5.75656364360796,5.77560066832007,5.79456716175423,5.81346138285079,5.83228157176498,5.85102595317082,5.86969273722764,5.88828012314286,5.90678629887486,5.92520944495192,5.94354773520493,5.96179933814363,5.97996241906318,5.99803514104474,6.0160156670575,6.03390216011292,6.05169278510832,6.06938571064779,6.08697910865132,6.1044711564779,6.12186003836521,6.13914394416884,6.15632107313837,6.17338963259107,6.19034783915839,6.20719392098053,6.223926115762,6.24054267380637,6.25704185730757,6.27342194129366,6.28968121442642,6.30581797911015,6.32183055217251,6.33771726501541,6.35347646477868,6.36910651416318,6.38460579114277,6.39997269087536,6.41520562494148,6.4303030215053,6.44526332651341,6.46008500333869,6.47476653214903,6.48930641219198,6.50370316028511,6.51795531161355,6.53206141997748,6.54602005735055,6.55982981485269,6.57348930253525,6.58699714881658,6.60035200206829,6.61355252945867,6.62659741689828,6.63948537051508,6.65221511476128,6.66478539449088,6.67719497331117,6.68944263484212,6.70152718196323,6.71344743669727,6.72520224132595,6.73679045716625,6.74821096503658,6.75946266597032,6.77054447966032,6.78145534555898,6.79219422291129,6.8027600898902,6.81315194490497,6.82336880474793,6.83340970665947,6.8432737061691,6.8529598789242,6.86246731898578,6.87179514063408,6.88094247644108,6.88990847835785,6.89869231778053,6.90729318449124,6.91571028797563,6.92394285521883,6.93199013360513,6.93985138878531,6.94752590487025,6.95501298476273,6.96231195040943,6.96942214124513,6.97634291726254,6.98307365462327,6.9896137496562,6.99596261554126,7.00211968472166,7.00808440834155,7.01385625501536,7.01943471081614,7.02481928168146,7.03000949010973,7.0350048774591,7.03980500256398,7.04440944260477,7.0488177919199,7.05302966368589,7.05704468822285,7.06086251356498,7.06448280545908,7.06790524817205,7.07112954209015,7.07415540635134,7.07698257815278
5.78296693893267,5.80760903646191,5.83196164070546,5.85604291941516,5.87986997922164,5.90345891938472,5.92682488102528,5.94998209607286,5.97294393132339,5.99572293202286,6.01833086343359,6.04077874855668,6.06307690617629,6.08523498542371,6.10726199974599,6.12916635860665,6.15095589718615,6.17263790626379,6.19421915900676,6.21570593669639,6.23710405487361,6.25841888558318,6.27965538038382,6.30081809205959,6.32191119479654,6.34293850335641,6.36390349195634,6.38480931142078,6.40565880650726,6.42645453127074,6.44719876479834,6.46789352489773,6.48854058292085,6.50914147620244,6.52969752050012,6.55020982252094,6.57067929053423,6.59110664546785,6.61149243150342,6.63183702524032,6.65214064592618,6.67240336342974,6.69262510697382,6.71280567400228,6.73294473608053,6.75304184882961,6.77309645606005,6.7931078983365,6.81307541921529,6.83299816967039,6.85287521604272,6.87270554391827,6.89248806394104,6.91222161659192,6.9319049768649,6.95153685902784,6.97111592075186,6.99064076750045,7.01010995524123,7.02952199567102,7.04887535864466,7.06816847634579,7.08739974547933,7.10656753120938,7.12567016939292,7.14470596934385,7.16367321757386,7.18257017812289,7.20139509695102,7.22014620293126,7.23882171043297,7.25741982171806,7.27593872717588,7.2943766102693,7.31273164525842,7.33100200249558,7.34918584735843,7.36728134343963,7.38528665297335,7.40319993824824,7.42101936336397,7.43874309478309,7.45636930292267,7.47389616320399,7.49132185641562,7.50864457020091,7.52586250052741,7.54297385111178,7.55997683530398,7.57686967644844,7.59365060877806,7.61031787740293,7.62686974060318,7.64330446802981,7.65962034327529,7.67581566370811,7.69188874048646,7.70783789935689,7.72366148169726,7.73935784401471,7.75492535842758,7.7703624136808,7.78566741459116,7.80083878345482,7.81587495864534,7.83077439689697,7.84553557190611,7.86015697541373,7.87463711714122,7.88897452441859,7.90316774421643,7.91721534052061,7.93111589710426,7.94486801602284,7.95847031787375,7.97192144303818,7.98522005030125,7.99836481787466,8.01135444316213,8.02418764263237,8.03686315240205,8.04937972745083,8.06173614311552,8.07393119267448,8.08596369038372,8.09783246886249,8.10953638046536,8.12107429733132,8.13244511058369,8.14364773084796,8.15468108850217,8.1655441329859,8.17623583329973,8.18675517771339,8.19710117323856,8.20727284753468,8.21726924619878,8.22708943422862,8.23673249614706,8.24619753604622,8.25548367567168,8.26459005679075,8.27351584024592,8.28226020522879,8.29082234972799,8.29920149113366,8.30739686531547,8.31540772616069,8.32323334762503,8.33087302093185,8.33832605616104,8.34559178229648,8.3526695462306,8.35955871367335,8.36625866797212,8.37276881145038,8.37908856360872,8.38521736365246,8.3911546674841,8.39689994908738,8.40245270188373,8.40781243498151,8.41297867722852,8.41795097481778,8.42272889084109,8.42731200716466,8.43169992322487,8.43589225481227,8.43988863798049,8.44368872368588,8.44729218193461,8.45069869895059,8.45390798002128,8.45691974689748,8.45973373864138
